# .PCD v0.7 - Point Cloud Data file format
VERSION 0.7
FIELDS x y z
SIZE 4 4 4
TYPE F F F
COUNT 1 1 1
WIDTH 1390
HEIGHT 1
VIEWPOINT 0 0 0 1 0 0 0
POINTS 1390
DATA ascii
0.56227726 -0.064148575 0.23482023
0.56863701 0.025873728 0.22373937
0.52148116 -0.037440777 0.2483737
0.50474161 -0.0016432897 0.25305468
0.57689929 -0.039941236 0.22472918
0.50454783 -0.013277163 0.25248802
0.51572227 -0.033783749 0.20950568
0.5131399 -0.034679204 0.25349325
0.52125973 -0.036443248 0.21845616
0.58634788 0.0075423229 0.24219248
0.53155386 -0.045656148 0.21503758
0.50116956 -0.0094447965 0.24943981
0.56603616 0.026386032 0.19699454
0.57742918 0.01687666 0.22182187
0.58619332 -0.011033961 0.2546736
0.56388468 0.030105356 0.23514168
0.5151071 0.0013228391 0.21866663
0.57872313 0.014412975 0.2071587
0.55928826 0.031669594 0.22841117
0.50086808 0.00074570213 0.25002915
0.54851496 0.034806211 0.24389495
0.56079155 -0.050999165 0.24423164
0.59927922 0.0024540781 0.24857478
0.56365538 0.029536827 0.21158104
0.55893916 -0.044319723 0.25473216
0.55637753 -0.072968878 0.23069249
0.51722378 -0.027673742 0.24623159
0.55630362 0.027900167 0.24870458
0.50373721 -0.011814559 0.25177807
0.56019682 0.034942187 0.25162444
0.56136507 0.030098304 0.22565907
0.57162708 0.026267314 0.24237958
0.55187637 0.033251897 0.2323675
0.57114393 0.024889547 0.20938963
0.51450628 0.002817845 0.23725207
0.5551703 -0.061024588 0.23598579
0.5818975 0.00511656 0.19929457
0.56708568 -0.051027328 0.25428542
0.57400054 0.031292267 0.24692746
0.50413799 0.011828893 0.2504878
0.52262026 -0.042510964 0.25373578
0.51392788 -0.0008954634 0.24643452
0.59411246 0.0009722315 0.2541112
0.5145511 -0.033381268 0.25497976
0.57675475 0.01929507 0.24490838
0.57579404 -0.04625769 0.25120866
0.55675155 -0.053744987 0.25160655
0.51423079 0.028184269 0.2517328
0.54243332 -0.048962962 0.22911377
0.51040733 -0.009993054 0.24984571
0.55938959 -0.072159983 0.23115948
0.58258224 0.0090021249 0.24044189
0.56774461 0.027928455 0.23696242
0.51790607 -0.034896348 0.22396828
0.51977205 0.02565458 0.24878037
0.51759714 0.0065676309 0.2320101
0.57103539 0.026848225 0.24298279
0.53739816 -0.047399007 0.25442812
0.52407759 -0.043997664 0.25075281
0.54618579 0.028000098 0.25043699
0.57123417 0.025276234 0.1958985
0.55784988 0.033399966 0.24380954
0.58485264 -0.0049909912 0.21779378
0.50344986 -0.0013842896 0.25255194
0.55547434 0.033069555 0.23958161
0.54658049 -0.051393703 0.25044969
0.50932765 -0.027391968 0.20266423
0.5218389 0.014417203 0.23500137
0.52635235 -0.039895326 0.20935111
0.54211199 -0.049722608 0.22720692
0.55697542 -0.06787581 0.23478609
0.53063589 0.022001216 0.25089699
0.5745666 -0.042814516 0.2127634
0.57699275 -0.025888715 0.25366145
0.51213604 -0.027883941 0.21193366
0.53098506 -0.041119821 0.23801576
0.58189285 -0.024969557 0.25426409
0.55653495 0.031874105 0.24220178
0.52419633 -0.043124642 0.25123432
0.58028978 -0.033614781 0.2537922
0.58755988 0.019789167 0.24789441
0.57665098 0.017728301 0.21661644
0.57428575 -0.04614424 0.24286425
0.57392585 -0.046377122 0.24317302
0.58453262 0.023312978 0.2488277
0.54425067 -0.051241711 0.24258049
0.58500761 -0.035297092 0.24891198
0.53853953 0.031606596 0.20367911
0.51968861 -0.037283845 0.20769899
0.51561439 -0.031045817 0.23313235
0.50897753 -0.03098999 0.25127223
0.54962695 0.031139664 0.23595636
0.56116623 0.036014631 0.24650353
0.56317103 -0.07300131 0.22905278
0.55813092 0.026717203 0.19110103
0.54490203 -0.049560457 0.2131622
0.51070952 -0.030102059 0.25421196
0.56176692 0.035424892 0.24589115
0.51294273 -0.030929007 0.20064162
0.55960041 0.033585168 0.24444
0.53143281 -0.043167602 0.20424913
0.55710131 -0.059485316 0.23735332
0.53082943 -0.045550358 0.25497201
0.52462977 -0.040924732 0.21997529
0.56069726 0.030443974 0.20930758
0.51048619 0.0062435307 0.25098836
0.52740467 0.03618684 0.25117597
0.55206221 -0.051852118 0.24141671
0.58511943 -4.310748e-05 0.24866876
0.53872848 -0.048317052 0.22772989
0.53816718 -0.047559388 0.20708722
0.55909759 -0.065493084 0.2353422
0.56340069 -0.071312703 0.22998418
0.55498725 0.029369071 0.2139519
0.51886326 0.0090864673 0.23798768
0.56445831 -0.075460538 0.22576812
0.54731488 -0.070361868 0.22926715
0.55162114 -0.060731061 0.24004254
0.53790599 0.031445708 0.20322005
0.51215047 -0.02719225 0.21786788
0.55716175 0.031816315 0.20706728
0.55698746 0.029969677 0.24704079
0.54707521 0.025573164 0.25166154
0.53976524 -0.047544755 0.23186882
0.56603277 -0.047975078 0.22596548
0.56752765 -0.047646947 0.22510608
0.57923871 0.011017565 0.20357561
0.53537005 -0.048851799 0.24925774
0.51384068 -0.001205989 0.22388278
0.54567844 -0.049729601 0.21294063
0.57834488 -0.042100292 0.22315679
0.59157419 0.012392831 0.24636713
0.593436 -0.017163351 0.24904834
0.55376333 -0.06411653 0.23869455
0.59290218 -0.024462154 0.25108671
0.52451098 -0.039344527 0.20496744
0.57082915 0.02421538 0.23181692
0.55106378 -0.052792862 0.23899651
0.55143374 -0.053504817 0.24354082
0.55953252 -0.051951859 0.23842667
0.58453768 -0.0051823151 0.22425334
0.54591054 -0.071729816 0.22344121
0.58440077 -0.0081156837 0.24503264
0.56648594 -0.046584629 0.24141081
0.58132845 0.01624224 0.24338435
0.56916898 0.023781385 0.19675501
0.55898416 0.032787766 0.24532098
0.52786791 0.026593862 0.24485159
0.55543536 -0.051973779 0.2417849
0.52704114 -0.040197555 0.22980791
0.52078366 -0.036058936 0.22679316
0.54080462 -0.048570506 0.23464915
0.58197671 0.010787413 0.24143429
0.51993239 0.010472151 0.23215862
0.5223248 0.022419017 0.24837984
0.54655236 0.030358426 0.22682168
0.51600915 0.0067629879 0.24524271
0.55589604 -0.065454088 0.2354714
0.54486787 -0.061459053 0.23723152
0.52932423 0.021832585 0.23387183
0.52783859 0.019873325 0.22334991
0.58224374 0.013685948 0.25184101
0.55498147 -0.067757115 0.23445468
0.59265751 0.0058209584 0.25025243
0.51025093 0.021556497 0.25147316
0.56298906 -0.049577098 0.24234626
0.55685604 -0.044492815 0.25483942
0.57059401 -0.046920352 0.22458172
0.55802673 -0.049943026 0.23325522
0.51573455 -0.030183228 0.2502383
0.51344442 -0.026334604 0.23815186
0.58140147 0.008962621 0.22894657
0.51539987 0.0099126576 0.24990635
0.5265494 -0.038210046 0.23900962
0.58420569 -0.0069990018 0.21054827
0.58612859 -0.00062790629 0.25148723
0.58387405 0.020854052 0.24760808
0.52959001 -0.044806797 0.2509878
0.59395361 -0.025169481 0.24893266
0.57657403 -0.044481624 0.24332839
0.55447167 -0.061814625 0.23941998
0.52880341 -0.039811272 0.21343777
0.53211051 0.023898067 0.21777734
0.58431131 0.0031724216 0.24383795
0.54238844 -0.05078391 0.25454238
0.51843143 -0.035744313 0.20951392
0.54539073 -0.057690345 0.23893997
0.57272661 -0.042043265 0.21400884
0.54788953 -0.050775733 0.2368872
0.56311077 0.02894862 0.21085437
0.59340811 0.0025906772 0.24740018
0.54842514 -0.05272888 0.25323677
0.52380973 0.02146901 0.24908608
0.54307365 0.034200829 0.23917118
0.58452588 -0.003295922 0.24865711
0.51287621 -0.019241301 0.24939536
0.57417893 0.019854041 0.21414949
0.58520859 0.017730409 0.24638776
0.57259077 -0.049523029 0.25474638
0.51169014 -0.023112601 0.2124681
0.58766162 0.00055939582 0.25318703
0.5469929 -0.052731823 0.25385398
0.52550697 0.032282695 0.24727507
0.54642141 -0.043856457 0.19689825
0.54831433 -0.052363612 0.24539925
0.56612182 -0.046820264 0.24172322
0.58461148 -0.0055787237 0.21587646
0.54403991 -0.056299809 0.23924063
0.55312186 -0.056652121 0.23826757
0.53757298 0.026377032 0.23564988
0.50622529 -0.026896771 0.25281489
0.49946249 0.0038036171 0.24882305
0.59180796 0.0093117021 0.24830645
0.58301359 -0.00088755495 0.20629458
0.59125632 0.005538763 0.25995836
0.55437595 -0.072868757 0.230353
0.56292331 0.028616901 0.20019247
0.58535171 0.001622893 0.25002316
0.58624005 0.016193109 0.24750558
0.57516104 0.018754942 0.20303389
0.58097076 0.010234601 0.22829999
0.51766086 -0.032380302 0.23460068
0.52075857 0.012725006 0.22073792
0.58414167 0.0026748376 0.24202563
0.51743788 -0.029545678 0.25115272
0.52938223 -0.043667581 0.2499616
0.52218145 -0.035633225 0.23918009
0.55437237 -0.07511352 0.22898763
0.51550674 0.0018111971 0.19764049
0.5417797 -0.049692646 0.24898592
0.56416124 0.03008586 0.24610777
0.58487582 -0.0079899877 0.2155928
0.54923272 -0.063958116 0.23908575
0.55755758 0.027627001 0.24834676
0.58329147 -0.0020071715 0.20155555
0.55278677 0.030420141 0.21676415
0.58415347 -0.01008081 0.2475114
0.56906992 0.026538787 0.23800267
0.50350267 -0.0089683374 0.25104475
0.59230781 -0.01962048 0.24927227
0.59526002 0.00015317295 0.24886836
0.5513261 -0.05478359 0.23891808
0.5113678 -0.028939011 0.20532632
0.57741094 -0.041233875 0.21788886
0.57354522 -0.045223996 0.23492983
0.5832426 -0.015194027 0.25137213
0.58678317 -0.033890035 0.2491347
0.51446354 0.00170538 0.24835022
0.51434195 0.00098053319 0.23122489
0.50786221 -0.027484098 0.25326067
0.58804387 -0.017784495 0.2547473
0.52425528 -0.036763351 0.24285904
0.5631423 0.035524305 0.24537179
0.58798361 0.00090716331 0.25361666
0.549622 -0.050284229 0.23454376
0.54314768 0.033242453 0.24619073
0.53284556 0.029871136 0.24474841
0.54343927 -0.054521546 0.23887646
0.56104279 0.030914307 0.21661027
0.5882138 -0.033824801 0.25165555
0.55633867 0.030213349 0.23754005
0.57047111 0.02429089 0.22761832
0.50181979 -0.013396657 0.25093439
0.58291972 0.0052937861 0.21351436
0.55412191 -0.053969882 0.25161114
0.5638212 -0.048983604 0.24286979
0.54793602 -0.052406594 0.24926135
0.56566679 -0.048086151 0.20963567
0.51386029 -0.0019753007 0.24849825
0.51496154 -0.026280621 0.25169617
0.58944571 0.0052956841 0.26217094
0.56415856 0.02512159 0.23238683
0.54255438 0.034668393 0.24059135
0.58088219 0.021272689 0.24539126
0.54454225 -0.049691215 0.21722496
0.53741539 0.025384342 0.20524597
0.50216353 0.0013113251 0.2511425
0.54880804 -0.053659014 0.24104302
0.57230049 0.023821257 0.24060619
0.58558011 0.0089796837 0.24339144
0.56329292 -0.06769783 0.23223077
0.51229674 -0.027541326 0.21362685
0.52678663 0.020846903 0.24056363
0.55460095 -0.068343848 0.23425783
0.5521065 -0.051669862 0.20127268
0.52020252 -0.034219667 0.23460843
0.54517466 0.025708036 0.25238869
0.50860548 -0.025162067 0.20663008
0.53533113 -0.049138017 0.24909988
0.57422465 0.019017529 0.20407867
0.58491808 -0.021225376 0.2545906
0.50298333 -0.0098642763 0.25145853
0.58102739 0.0081536975 0.20513071
0.53320783 -0.040519077 0.25026575
0.51884431 -0.034802083 0.22222894
0.56732804 0.032011941 0.24520139
0.54751581 -0.043999191 0.25560239
0.59854913 -0.0091877049 0.24926017
0.54390675 0.029605158 0.23618938
0.51551294 -0.033142 0.25568208
0.55912501 0.027285542 0.24789947
0.53372103 -0.046158314 0.21316521
0.58966362 0.0094074374 0.2469078
0.52891845 -0.041251559 0.20702057
0.51158011 -0.024943329 0.23546928
0.56088781 -0.049391925 0.24190287
0.59213454 -0.014868597 0.24975002
0.51679653 0.01255248 0.24843606
0.57308835 0.025746552 0.24517962
0.54790676 0.032041129 0.23069546
0.59759861 -0.0088087646 0.24864727
0.55778575 -0.051442362 0.24454238
0.53361797 0.025275312 0.2354022
0.58374625 -0.0025265967 0.22172636
0.56530863 0.028738646 0.217296
0.54709077 -0.052231275 0.24117433
0.54805398 -0.049343158 0.251077
0.54538125 0.032554373 0.24607439
0.51166546 -0.0098355142 0.25337076
0.54541874 -0.044809569 0.19430217
0.57560515 -0.044316031 0.23089612
0.53486627 -0.043726929 0.25134638
0.55554074 -0.062703453 0.23933825
0.52706701 0.01955873 0.23717217
0.58179998 0.00767302 0.20925297
0.51733744 0.0086615616 0.19357345
0.55685961 0.030821092 0.24017926
0.51653218 -0.030905688 0.23720326
0.52650911 -0.041608416 0.20546295
0.551148 -0.050398424 0.1944733
0.55740488 0.031755995 0.20309138
0.56003433 -0.054198261 0.23809162
0.58288163 -0.003196809 0.20181136
0.51184344 0.021971896 0.25128123
0.56782204 -0.047012266 0.23984611
0.54672039 0.033362992 0.20395401
0.53373557 -0.046551503 0.22233644
0.58510435 -0.043266274 0.2528722
0.55311775 0.03705731 0.24679877
0.5553636 -0.074480742 0.228955
0.54402691 0.03042442 0.24975945
0.5189696 -0.037250355 0.19577043
0.58244091 0.0068088588 0.23603924
0.56630254 -0.050730713 0.25315154
0.57632422 -0.04255195 0.22050217
0.52258557 -0.039112426 0.1954498
0.55879205 0.031151224 0.21016014
0.58456898 -0.0088709751 0.24456553
0.55410993 -0.063335076 0.23945752
0.58388293 -0.0036854926 0.20198855
0.52515751 -0.039585557 0.21029192
0.55846494 -0.073097609 0.22973397
0.51861632 -0.03382339 0.21785733
0.51322091 -0.025330584 0.23877281
0.56290638 -0.052205224 0.25303882
0.52855331 -0.041649472 0.24679515
0.56821698 0.028625088 0.24276426
0.52376139 -0.039787736 0.19793954
0.55250579 0.034663461 0.2445793
0.54290247 -0.049564935 0.22039354
0.5784058 -0.045674924 0.25352257
0.53254455 0.028862977 0.24808231
0.51155186 -0.018671632 0.25289968
0.51036495 -0.0077115349 0.25000843
0.55830818 0.034126818 0.24531467
0.50419778 -0.013251404 0.25231898
0.54594928 -0.048943017 0.24028011
0.58247507 0.0071552354 0.21600337
0.54859567 -0.050541878 0.1943908
0.58362412 -0.0015699961 0.20476486
0.58520567 -0.010125404 0.25210568
0.58872604 -0.011942744 0.2553634
0.56158829 -0.069214381 0.23202606
0.58511096 -0.033189122 0.25026655
0.5408237 0.026939962 0.23462203
0.5842452 -0.005824523 0.24528609
0.58381665 0.019455424 0.25011963
0.56709659 0.027583122 0.23094347
0.54027539 -0.047213893 0.23850843
0.52282029 -0.035620008 0.23904304
0.58450478 -0.01479414 0.25369933
0.56433898 0.028023511 0.19923423
0.50931245 -0.0080975564 0.25021711
0.54026341 -0.048498757 0.23890767
0.55085582 -0.050698619 0.19607145
0.50882453 -0.028799938 0.25280645
0.53297901 -0.046991535 0.25225216
0.57405621 -0.04735551 0.19535704
0.5156644 -0.031778522 0.22178648
0.59537548 0.0019231796 0.25166523
0.51170379 -0.027000077 0.22995569
0.5498417 -0.051514614 0.20341672
0.55317712 -0.050182823 0.25089446
0.51965523 -0.035663147 0.22106312
0.54871035 -0.051733311 0.24105784
0.55964011 -0.065168813 0.23655529
0.55383193 0.039258577 0.25274518
0.55773169 0.031675089 0.22351712
0.57783192 0.012597886 0.19721636
0.52449238 -0.039700575 0.22609763
0.57267183 0.024935262 0.24552397
0.53200781 0.028838092 0.24447259
0.52393514 0.016864413 0.23560767
0.56367087 0.025636995 0.19308509
0.57980287 0.012641743 0.20778538
0.50937027 -0.023894394 0.22828642
0.54471904 -0.047376908 0.24077515
0.59126282 0.01246067 0.246456
0.52689779 -0.041488644 0.25109148
0.55233008 0.033056587 0.22975908
0.53347844 0.025291845 0.22178254
0.55644488 -0.052393109 0.2432
0.51539439 0.00041497807 0.21674827
0.5165897 -0.031090369 0.25056976
0.56549263 -0.04992488 0.21474938
0.54846895 -0.075885989 0.22310194
0.58781976 0.01112882 0.2500906
0.53750229 0.034256913 0.24434376
0.57288575 0.021354552 0.20914634
0.56557709 -0.046972953 0.23951052
0.57448518 -0.04441845 0.23781446
0.58602726 0.0059720296 0.25494999
0.56839341 -0.047557775 0.23231845
0.54246807 -0.05142957 0.24092287
0.56696057 0.027501218 0.22268604
0.57836831 0.012565362 0.20018846
0.59045565 -0.028336298 0.25215465
0.57980746 -0.038369894 0.21751119
0.54714054 -0.051781114 0.24017929
0.5888142 0.013383182 0.248171
0.51073426 0.0054820767 0.25166449
0.54303664 0.02876108 0.23230906
0.5860489 0.0031748861 0.25289714
0.56280166 0.028872848 0.20792441
0.52540797 0.018010462 0.22324042
0.54062849 0.03572727 0.24710828
0.58151102 0.011477224 0.24033929
0.57172447 -0.036269985 0.25400138
0.56153989 -0.047635473 0.20728847
0.52166086 -0.036634192 0.22548583
0.52527308 0.017536011 0.22425278
0.51325405 -0.01349526 0.24651287
0.53578532 0.035959344 0.20541224
0.59230012 -0.022306267 0.24991813
0.58760047 -0.034378815 0.24849248
0.53969347 0.03498229 0.22439232
0.54891956 -0.051095445 0.241641
0.54744089 -0.067508839 0.23550256
0.54092836 -0.048160896 0.20629929
0.52595884 0.018853383 0.22227699
0.56993634 0.026566289 0.24661233
0.57219309 0.024327975 0.24075662
0.54569054 -0.067380048 0.23465739
0.51889426 -0.033131998 0.23470844
0.55967611 -0.075246982 0.2279145
0.57494342 -0.037511326 0.25346035
0.53976637 -0.04442152 0.2551899
0.52311152 -0.037092861 0.24914254
0.57015729 0.024947222 0.2238722
0.50073695 -0.0026602605 0.25015289
0.52501404 -0.040262476 0.22460917
0.55856448 0.032019649 0.2296347
0.52034831 -0.033882271 0.2335818
0.59406638 -0.007199401 0.24987213
0.51142317 -0.017723348 0.24968788
0.56964576 0.022988068 0.20319556
0.55817175 -0.050185367 0.23080556
0.54614657 -0.04666217 0.2420695
0.52944624 0.022251781 0.19425443
0.56093234 -0.05212367 0.25128508
0.5906992 0.015590477 0.24899173
0.51155186 -0.026317708 0.23037769
0.57941079 0.0099371132 0.19880864
0.55358303 -0.053931471 0.24069893
0.56181902 -0.04792561 0.21118228
0.54985076 -0.051737595 0.23795539
0.51343 -0.012470318 0.25308311
0.52122146 -0.037725508 0.21632035
0.5414778 0.027942142 0.23744529
0.5193758 -0.026943788 0.25067559
0.53287369 0.029075943 0.24779995
0.51573831 -0.027801964 0.25168672
0.59050053 0.0061519477 0.25223374
0.51944077 -0.036875319 0.20922136
0.51024145 -0.024503244 0.22965899
0.58404255 -0.011214338 0.24119921
0.51460427 -3.3634647e-06 0.24687321
0.5302788 -0.048279963 0.24926378
0.50615859 0.0084740333 0.2518051
0.57121569 -0.047646623 0.24772544
0.51650894 -0.026878692 0.24983397
0.52877551 -0.041352917 0.25038239
0.52453774 -0.040003225 0.20029648
0.51184201 -0.032577187 0.2543475
0.55055845 -0.053165458 0.2414715
0.56038606 0.027288139 0.24735604
0.52502304 -0.041565128 0.25059098
0.55157459 -0.051578499 0.23583564
0.55452001 0.032808721 0.22939852
0.58199108 0.0066030254 0.21262784
0.52349782 -0.038944103 0.25034124
0.57341242 0.031869646 0.247527
0.57419759 0.022937972 0.24175727
0.54806644 0.027161164 0.20930348
0.5219276 0.019498425 0.24676892
0.56431437 -0.045527592 0.2553741
0.56209785 -0.052205175 0.25211224
0.56494069 -0.048342194 0.23461114
0.51116556 -0.026585326 0.20966282
0.58215427 0.01160031 0.2475456
0.55216241 0.032782376 0.22811264
0.57741469 -0.043741453 0.24502504
0.57913649 0.016008006 0.24105373
0.51425546 -0.029244926 0.23453407
0.51811922 0.027028542 0.25026056
0.5112282 0.0025786841 0.2517097
0.54478192 -0.051856562 0.19944718
0.58938432 -0.026051415 0.25032222
0.57758307 0.01670667 0.22584103
0.58647424 -0.016775582 0.2546488
0.57015193 -0.047775377 0.20495547
0.58822149 0.0016325807 0.25427985
0.53189236 0.023148956 0.19376938
0.58334899 0.0085971402 0.2527408
0.58178848 0.0094278427 0.23220575
0.5574441 0.03098155 0.24127495
0.57677537 0.017205345 0.2122353
0.57532364 -0.043349098 0.21087429
0.56116301 0.029530294 0.23757881
0.5152421 0.0062716738 0.24900024
0.5845015 0.00079298473 0.22458211
0.56117636 -0.077369392 0.21976751
0.57670379 0.016522659 0.21440098
0.5902012 -0.025370033 0.25030026
0.56201041 0.031219143 0.24198313
0.59108573 -0.0080998894 0.24933617
0.55801809 0.033581641 0.24403398
0.57660455 0.01871201 0.23898138
0.53501886 -0.044853311 0.25059617
0.53346616 0.026954276 0.24894999
0.51379144 -0.026367031 0.2532104
0.50954443 0.016392848 0.2513445
0.52332634 -0.039418392 0.20297749
0.51960677 -0.032548841 0.23687559
0.55796582 0.028507009 0.22834848
0.57097566 -0.048602398 0.20642303
0.54816782 -0.051733922 0.25014085
0.54516035 0.025152862 0.25276235
0.54372275 -0.066274591 0.23441625
0.52374297 0.02242085 0.24975851
0.54902667 -0.051379055 0.22278537
0.58449703 -0.0019957758 0.24553925
0.56731105 -0.046382699 0.23231608
0.53254122 -0.04624657 0.21373042
0.57980615 0.014503052 0.23082478
0.51913059 0.014476862 0.24737935
0.51493305 0.027600382 0.25167909
0.58293062 -0.0023969109 0.20107406
0.54816616 -0.050707217 0.22525805
0.58152294 0.0057781655 0.19958165
0.58319724 -0.0015839472 0.20181729
0.51395422 -0.02929857 0.23488408
0.55212724 -0.056860074 0.25310749
0.55729175 -0.049782924 0.23346494
0.56896335 0.026405096 0.22159886
0.54402292 -0.049284924 0.2159052
0.57038289 0.025155138 0.23904075
0.53286791 -0.045798671 0.23240186
0.55917019 0.029688867 0.20616089
0.57493311 -0.046159308 0.19546232
0.52679241 -0.040900558 0.22509348
0.5640443 -0.070987523 0.22991082
0.53614366 -0.047228284 0.22557169
0.54581046 -0.057237048 0.23949999
0.58870977 -0.010076189 0.25537825
0.53818339 0.027522711 0.23982334
0.51957369 -0.036312629 0.22291562
0.57003075 0.026487978 0.24525128
0.50075018 0.0060334145 0.24980652
0.5096699 -0.024423676 0.22805674
0.55416673 -0.057262022 0.19522664
0.55641478 -0.060096063 0.23727089
0.56718707 -0.049837168 0.21651122
0.52728015 0.020713707 0.2365412
0.59127253 0.0063898782 0.24563642
0.55855674 -0.050749224 0.23993069
0.51386005 -0.025618976 0.21701686
0.54793119 -0.05247137 0.25200459
0.56031966 -0.064564258 0.23663691
0.54400736 -0.054725371 0.23903118
0.56428903 -0.049569651 0.24942623
0.51719105 -0.028887453 0.25041321
0.54576308 -0.067705609 0.23445605
0.52900821 -0.039868891 0.2121513
0.54660881 -0.050921895 0.2222475
0.57313973 0.020258546 0.19493389
0.59360039 0.0079320073 0.24808271
0.57401007 -0.043444045 0.21137033
0.55694628 -0.050237644 0.25051624
0.58049649 0.0095871845 0.19371758
0.51735294 -0.034668952 0.2070203
0.51586163 -0.033224113 0.21270157
0.58374077 -0.006421858 0.20666254
0.52349305 -0.039456308 0.21184817
0.59372175 0.0057064323 0.24792078
0.51197565 -0.030259138 0.20332454
0.52367163 -0.037291996 0.23555839
0.5514608 0.030892547 0.2375215
0.52696669 0.019878013 0.22620922
0.53261745 -0.04527285 0.21050531
0.53495222 0.030476227 0.24547301
0.54960781 -0.050667088 0.2508601
0.56561488 0.026873412 0.19577394
0.54655963 -0.072269432 0.22339159
0.56729347 0.028097844 0.24226108
0.54933429 0.027035072 0.24972333
0.52556521 -0.041223593 0.19684131
0.5534091 0.031965025 0.21193118
0.52096874 -0.033480681 0.24591932
0.51352155 -0.029031685 0.21860076
0.58401942 0.013738374 0.24445835
0.54369253 -0.049646333 0.23666859
0.58125007 0.00920658 0.22092134
0.59092212 -0.023908449 0.25029686
0.56090289 -0.072050594 0.23058803
0.55280715 -0.051731512 0.23668139
0.51638186 -0.032897066 0.21457638
0.59448618 0.00336182 0.25236875
0.52528352 -0.038398672 0.21665151
0.57332379 0.021270746 0.23369162
0.57409906 0.028291596 0.24630319
0.53714144 0.035362206 0.20705396
0.58351368 -0.016260408 0.24125278
0.5827812 0.0022155829 0.20710605
0.57445383 0.020398909 0.20928334
0.58285725 0.0025356386 0.23175499
0.56916994 0.024937082 0.23389469
0.56753486 0.027550872 0.23115511
0.59533715 -0.0030644457 0.24936536
0.55467689 0.035892311 0.24543199
0.58364159 -0.0014018485 0.23604015
0.52411532 0.018189257 0.23633842
0.55353665 -0.052166596 0.2404777
0.54756957 0.030343072 0.21642816
0.53103757 -0.043719992 0.24455091
0.58308762 -0.040610086 0.2507062
0.50115454 0.0010550962 0.25041136
0.55144942 0.032832082 0.20068648
0.54095602 0.036081031 0.24754533
0.58369035 -0.0040067537 0.20570996
0.57915431 0.015056798 0.24306923
0.51797539 -0.036355436 0.19687891
0.51267374 -0.026894258 0.21972291
0.58141041 0.008304256 0.21221751
0.59065408 0.013144218 0.24626496
0.58074021 0.0089763394 0.1974597
0.57528222 0.017905315 0.21330388
0.52110451 -0.039819289 0.25387886
0.51549041 -0.026331568 0.21296661
0.51663512 0.0060899029 0.21719189
0.51403618 -0.00060055958 0.2204358
0.59083843 0.0081455419 0.24949495
0.52777976 -0.042148117 0.20924096
0.57484233 -0.034262478 0.25309592
0.54445958 -0.055846512 0.23980063
0.57034546 0.023973234 0.2259624
0.51407701 0.02801818 0.25152761
0.58917379 0.015226725 0.24679607
0.51758385 -0.03141243 0.2366277
0.54830492 0.029843958 0.24957992
0.54937965 -0.071810059 0.22930744
0.52389479 -0.038803894 0.2277924
0.5802322 -0.038070571 0.21840444
0.56601304 0.027817402 0.2251184
0.58343005 0.0098128673 0.25232765
0.58490461 0.0010918753 0.24126711
0.52493316 0.020701971 0.2437457
0.59148014 -0.027104057 0.25089881
0.55967093 -0.052618917 0.193556
0.56076181 0.032081474 0.24303469
0.51866984 -0.032124076 0.2353318
0.58527428 0.0010675573 0.24957168
0.59379071 -0.0061982363 0.24935359
0.5245347 -0.038837641 0.23081923
0.59327281 0.0047243596 0.25198793
0.55421668 -0.050177291 0.22995143
0.58202982 0.0083640702 0.22748831
0.5690378 -0.0478081 0.23093349
0.54370195 -0.046113309 0.25470135
0.57974571 0.013788559 0.21537106
0.57678574 -0.041517477 0.21635073
0.55811685 0.029564921 0.23515104
0.52057862 -0.035721228 0.22287032
0.58592176 -0.016020194 0.25490955
0.53123516 -0.042869829 0.23498601
0.51899892 0.013509074 0.24684554
0.52386785 0.023354493 0.24705446
0.50948918 0.021612545 0.25110534
0.52667713 -0.039983071 0.23654066
0.58559752 0.023992782 0.24879263
0.56558353 0.02777371 0.20996153
0.58417898 -0.0032859307 0.24441618
0.59324753 -0.01633813 0.24963029
0.541623 -0.044384837 0.25486028
0.57533532 0.019147791 0.20477146
0.51526457 3.0697389e-05 0.19665842
0.56326282 -0.049140651 0.24066585
0.58918417 -0.026312815 0.25136128
0.56000298 -0.051480744 0.21686371
0.55990362 -0.06542749 0.2362867
0.54912072 0.03218393 0.24427213
0.5426079 -0.049610507 0.21800245
0.5852254 0.011751968 0.25472325
0.58226293 0.0016069789 0.2036705
0.54212266 -0.048962191 0.23956437
0.57387674 0.032833051 0.24791786
0.56694138 -0.04622953 0.242254
0.57603967 0.026671462 0.24574281
0.57732856 0.022310872 0.25015044
0.58232832 0.023593975 0.24743938
0.52960491 0.033449456 0.24898349
0.55724865 -0.052800126 0.1947165
0.51576346 -0.031441521 0.22073445
0.56670302 -0.047345292 0.21954216
0.58336782 0.0052608121 0.21373072
0.54612678 -0.043896981 0.25493166
0.51777261 -0.033814635 0.22141618
0.55964792 -0.050392412 0.21629575
0.55274576 -0.051101848 0.19425261
0.51301205 -0.035595886 0.25274804
0.55339986 -0.051620785 0.21469736
0.51235312 -0.027693644 0.23520857
0.56612146 -0.04736466 0.23346411
0.51867521 -0.034565043 0.22134717
0.5712043 0.022359166 0.19409068
0.51528567 -0.00045667044 0.24688058
0.55342865 -0.056629945 0.23815173
0.50994611 -0.0031385305 0.25048077
0.56206328 0.032597084 0.2440443
0.52904624 -0.043702427 0.21609531
0.5470804 -0.050760202 0.21174675
0.54287493 0.02905596 0.23504563
0.52821577 0.02532745 0.24846071
0.56690675 -0.071031094 0.22992177
0.51688802 0.0082707591 0.2470347
0.5928793 -0.0014548993 0.24889296
0.52926242 0.023626758 0.24121243
0.54190332 0.033906668 0.22613953
0.52693766 0.022660378 0.2495015
0.58365548 0.0013799767 0.23539281
0.58177018 0.012569492 0.24534662
0.57303673 0.021055656 0.23067071
0.52345306 0.023930242 0.24888383
0.59409773 -0.003154038 0.24983341
0.58437884 -0.0069935336 0.21199928
0.51927668 -0.034418996 0.2332546
0.59327286 0.002718234 0.25713769
0.5405761 -0.049074657 0.23635495
0.57730711 -0.027300334 0.25278842
0.57799411 -0.046072602 0.25268883
0.56929582 -0.048119135 0.22338523
0.57592678 -0.041223135 0.22560303
0.57486159 0.019451505 0.22369705
0.54725176 0.039009325 0.2517345
0.53313452 -0.042432338 0.2368477
0.51969957 0.012889707 0.24119534
0.58233064 0.0068476149 0.22246869
0.52673143 -0.040203493 0.24407277
0.55776024 -0.056162994 0.252774
0.57513028 -0.04378422 0.22820027
0.52706915 0.019986738 0.23120984
0.54891318 -0.057142563 0.2412364
0.58951324 -0.026384497 0.25126737
0.54650438 -0.074396774 0.22179182
0.56550336 -0.045119341 0.23509195
0.51449072 0.0057313913 0.24774361
0.57708067 0.013496748 0.19476822
0.5763756 0.01792014 0.20984016
0.58863688 0.0069321673 0.24210025
0.52383435 -0.03696543 0.2345328
0.5572781 -0.067853935 0.2346718
0.5403347 -0.046973884 0.25361136
0.55326986 -0.060030919 0.23614776
0.53324002 0.027165385 0.24169008
0.56094837 -0.051502749 0.25086713
0.52560794 -0.03907967 0.23257111
0.54795158 -0.048434529 0.24173099
0.54127645 0.031889774 0.2040043
0.56912619 0.024615444 0.23371729
0.53666306 0.030276675 0.24463016
0.56904262 0.024023544 0.19551186
0.54751557 -0.0507138 0.22299409
0.54906881 0.029046932 0.2485055
0.56124377 -0.071747288 0.23062897
0.55734485 -0.050564703 0.21739914
0.56246239 -0.045065977 0.25472
0.52698994 -0.039678983 0.23287115
0.52295947 -0.035864756 0.24871007
0.52189499 -0.036982898 0.22670819
0.52869266 0.021431075 0.23140481
0.56193411 0.030469408 0.22894664
0.58420676 -0.0054958728 0.24144608
0.58710974 0.0029104555 0.25327185
0.54492223 0.030820541 0.19975759
0.52936155 0.033651814 0.2490021
0.59054518 -0.024862796 0.2498167
0.58661878 -0.0010354349 0.25144973
0.56237465 0.031571221 0.24624437
0.55540133 -0.060488418 0.23954424
0.59249628 -0.010589876 0.24971408
0.55779243 -0.054913856 0.25193325
0.55446905 -0.059443779 0.23981446
0.54966009 0.027966393 0.20912187
0.56946433 0.024547232 0.20966482
0.51328546 0.023100315 0.2515347
0.53670174 0.025683463 0.20572901
0.57598984 -0.043443937 0.23015353
0.57353705 -0.045539025 0.23514187
0.53011018 -0.03837499 0.25163299
0.56646252 0.027133426 0.1977969
0.57228166 -0.046778344 0.23395386
0.54852194 0.030262843 0.21722215
0.55090624 -0.050619386 0.24170558
0.58322972 0.014750835 0.25315657
0.55288905 -0.058619551 0.24092802
0.56900746 0.023774328 0.19801702
0.56061798 -0.060924508 0.23748305
0.58502805 -0.0038195469 0.22281457
0.59376597 -0.013193081 0.24883795
0.53466845 0.026321324 0.238085
0.56086987 -0.049842015 0.23961031
0.5725649 0.028089037 0.24558225
0.54829532 -0.046891335 0.19431093
0.51154298 -0.025651213 0.23628083
0.5638122 0.027289342 0.23634166
0.57937288 0.011773275 0.22180733
0.54766262 -0.050610811 0.23814942
0.55451196 0.03129214 0.24145596
0.50839573 -0.0261227 0.2545521
0.55557668 -0.052082147 0.19878107
0.55324054 -0.072987519 0.22951497
0.58400679 -0.0041510272 0.2125434
0.52819151 -0.039443087 0.24039438
0.50500375 -0.012068501 0.25227097
0.53643513 0.038884047 0.25124758
0.58652192 0.0092150941 0.25191501
0.54284692 -0.049711924 0.21669304
0.57384026 0.020335343 0.2129688
0.54636925 -0.047662288 0.24145098
0.56782848 -0.04934347 0.25285161
0.51023871 -0.0060465038 0.24983113
0.54673344 -0.057416771 0.24121712
0.52945882 0.021818204 0.23131749
0.58515805 -0.04118254 0.25146967
0.52654618 0.032941464 0.24831951
0.56117141 0.030920576 0.2315779
0.54735076 -0.072655551 0.2235316
0.57231224 0.023258582 0.21701349
0.5667221 0.02480617 0.23235828
0.52050769 0.013240591 0.23857942
0.59396213 0.004370972 0.24825063
0.55888766 -0.050729264 0.24359694
0.54184282 0.033396475 0.22708444
0.551364 -0.053398389 0.24125437
0.56957859 0.029107008 0.24829535
0.52261209 -0.042826906 0.25394845
0.51185298 -0.026914457 0.23280701
0.5768019 -0.045123514 0.24875101
0.57021856 -0.046800423 0.24249803
0.57724738 -0.041510921 0.21740451
0.54526722 -0.058594901 0.23955998
0.58945411 -0.00031540822 0.25350422
0.58807379 0.0088770296 0.25147218
0.52449316 -0.039228234 0.20884478
0.51852405 0.01029665 0.19157992
0.54631305 -0.051323898 0.25321394
0.56264865 -0.05047445 0.24818207
0.54338157 0.033050571 0.2472197
0.53195041 -0.044861175 0.25128371
0.51270306 -0.0049996083 0.24694069
0.56130373 -0.049346335 0.23527414
0.5842849 0.0026641544 0.2217848
0.57249266 0.024170112 0.23451553
0.5153724 -0.031652775 0.23182663
0.54153991 0.029065778 0.23934771
0.59046894 -0.026800483 0.24940878
0.54246068 -0.045864422 0.25421825
0.5478127 -0.060711224 0.23936535
0.58267784 0.0068981154 0.21863051
0.56848782 -0.049285151 0.21176538
0.57183212 0.025306769 0.24399312
0.5455364 -0.05367437 0.25510362
0.56080598 -0.049304105 0.24696846
0.56041819 -0.057281621 0.23729667
0.51306069 0.022414925 0.25090808
0.51450425 -0.030723983 0.25451463
0.53307307 -0.045594286 0.23090456
0.57156295 0.032975744 0.24898034
0.58111119 0.013721054 0.24042656
0.58478606 0.0030495282 0.24941824
0.58300126 0.012393781 0.25264817
0.51324588 0.026648208 0.25142401
0.58352047 0.00033916801 0.21288823
0.57464689 0.029876186 0.24703708
0.56879467 -0.046803351 0.24311164
0.58469403 -0.0040512132 0.24819
0.54175955 -0.044237334 0.25504252
0.54046929 -0.051115144 0.24029942
0.53031546 -0.043956138 0.24756524
0.59154093 -0.025494091 0.25108072
0.55565256 -0.052154358 0.2417683
0.52895683 -0.04137709 0.20830254
0.51385909 -0.0073015564 0.24565536
0.54426032 -0.071444437 0.22276539
0.58668447 0.0062475107 0.24001771
0.58846843 -0.031466573 0.24865538
0.55441803 -0.070340648 0.23187466
0.52726871 -0.039698347 0.21269672
0.56246454 0.033395533 0.25034708
0.58288431 0.015959864 0.24504524
0.52687293 -0.041098878 0.22363637
0.5519895 -0.051652402 0.20003751
0.5161007 -0.034685828 0.24858658
0.54332793 -0.055440459 0.23949243
0.5379678 0.035176244 0.20600663
0.54238039 -0.05109711 0.25475317
0.51191109 0.0055223317 0.25074148
0.52753806 -0.042394586 0.2133296
0.5788331 0.015703369 0.23254201
0.57936019 0.015530587 0.24488349
0.56989235 0.025392238 0.22888963
0.57646048 -0.040851608 0.22435984
0.54413915 -0.065824889 0.23497181
0.52469403 -0.037008379 0.23646334
0.52878964 -0.042027228 0.20745321
0.5169704 -0.032101665 0.23037349
0.51448333 -0.027144002 0.25342754
0.56878883 0.025898611 0.1923309
0.59067589 -0.020662995 0.24825411
0.54748344 -0.050246779 0.20741208
0.57523316 0.02930057 0.24643937
0.51686043 -0.033934411 0.21812978
0.52996105 -0.042840865 0.24443138
0.5530144 -0.042928979 0.25528398
0.5738855 -0.044360142 0.21086504
0.57864481 -0.043220431 0.24797334
0.52763361 -0.038302545 0.23605733
0.57877761 0.019514374 0.24886486
0.52833921 -0.039763823 0.23672161
0.56492376 0.027084008 0.2108597
0.52344447 -0.038560245 0.25076634
0.52027482 0.010696642 0.23339532
0.58935648 0.016000791 0.24856329
0.59121972 0.014740917 0.24825495
0.51424903 -0.024998745 0.20752196
0.58175337 0.008341115 0.22867687
0.5890401 0.010039302 0.25028762
0.52054745 -0.036892228 0.2547282
0.56870055 0.024970591 0.23784629
0.57778108 0.016575219 0.21772644
0.54893988 -0.061115667 0.23967235
0.55168808 -0.052137848 0.23743109
0.57033652 -0.049060501 0.20954859
0.53539079 0.025891341 0.23627423
0.58964682 0.0093580298 0.25047803
0.52097464 0.014597953 0.24169789
0.59605449 -0.018513653 0.24836649
0.57690167 0.018625027 0.23366085
0.53560406 -0.046839621 0.22427231
0.54011518 0.034504864 0.24051435
0.51523513 -0.031254753 0.21381854
0.55575746 0.033734448 0.24366242
0.57758951 0.028323742 0.24609543
0.57240963 -0.043257363 0.2121588
0.57788134 0.016229153 0.21481688
0.52221525 0.013534315 0.23057187
0.57000792 -0.04933089 0.25318092
0.52333862 -0.042667449 0.2535308
0.54698241 0.03094908 0.24317738
0.55502284 -0.057657123 0.23809849
0.53626543 -0.04777753 0.21187025
0.5589025 -0.050671447 0.23081346
0.5888775 -0.025372757 0.25087067
0.50987583 -0.022581402 0.2536602
0.56289172 -0.045422915 0.25468716
0.50846481 -0.022476297 0.20989077
0.56635696 0.028426353 0.23658451
0.51358289 -0.032059744 0.20015095
0.51019013 -0.033008616 0.25178775
0.5939678 0.00053017389 0.24839833
0.5699544 0.025864532 0.24068812
0.51350081 -0.014198992 0.2472247
0.54344046 -0.051642999 0.25465918
0.53298211 -0.042851809 0.22833225
0.57467675 0.019174093 0.2057911
0.5241465 -0.039348606 0.25098667
0.57020545 0.026629971 0.2413879
0.55547553 -0.052357547 0.24486677
0.52968436 0.022359757 0.2352854
0.58542919 0.0021782231 0.25047463
0.55053723 -0.0522446 0.21888784
0.53483349 -0.047008753 0.22471529
0.54939467 -0.055445842 0.24139334
0.51618582 -0.031678133 0.22755665
0.5672695 0.027743626 0.23927878
0.52728623 -0.043189436 0.24989204
0.58928537 0.019697525 0.24835546
0.58660167 -0.032151259 0.24902555
0.58670497 0.011554505 0.24572945
0.5805614 0.0092351129 0.20567855
0.58668983 0.0082568079 0.25563818
0.58788097 -0.018883413 0.25520271
0.53653079 0.033088326 0.23889746
0.55620772 0.031094342 0.24062051
0.54399824 0.029314067 0.25050682
0.57304972 0.021478532 0.22692776
0.56733167 -0.073257893 0.22714226
0.53629357 0.02621972 0.21120526
0.54644758 -0.043954812 0.19819368
0.54425663 0.027024619 0.25191146
0.5465194 -0.051331654 0.24548715
0.56116593 -0.050447132 0.24370538
0.58417726 -0.010699451 0.24300559
0.5839752 -0.024041316 0.25471374
0.59601057 -0.019576553 0.25161269
0.58684784 -0.0053162365 0.25247529
0.56318861 0.030355111 0.23495211
0.52517259 -0.039509241 0.24810444
0.51598167 0.016633771 0.25126484
0.51689595 -0.032383043 0.22064787
0.51544213 -0.031079229 0.21676722
0.58247167 0.0053267553 0.21329799
0.58249623 -0.00062955829 0.20756111
0.57876205 0.011681122 0.19839336
0.53178239 0.024101753 0.20061795
0.57092041 0.024542892 0.21856771
0.52367324 -0.040676173 0.22149555
0.56206435 -0.051203933 0.23781461
0.5405677 -0.049400646 0.23657435
0.56065893 -0.041679807 0.25625041
0.54681325 -0.067782879 0.23496315
0.55022442 -0.052734263 0.24227633
0.55993009 -0.049892116 0.23749942
0.51386738 0.00040637187 0.23356421
0.5522179 -0.051533867 0.21896921
0.58899003 -0.031978622 0.24812368
0.51784235 0.017723698 0.25114396
0.54119796 -0.051599853 0.2403073
0.56436086 0.028131332 0.21671243
0.56167686 -0.078186274 0.21905906
0.53962839 0.030057343 0.24807028
0.51448905 -0.029108366 0.22041789
0.52852237 0.021617958 0.23532365
0.55202001 0.031479966 0.19457906
0.51267481 -0.010334082 0.24743757
0.576195 0.018042501 0.23691328
0.55845046 -0.068047859 0.23405941
0.53709799 0.037713211 0.25073951
0.56333047 -0.053915869 0.23438495
0.55117822 -0.044087321 0.25479671
0.50973392 -0.025596427 0.20826964
0.50908309 0.017632753 0.25201181
0.56000197 -0.067657039 0.23364319
0.51215184 -0.027359778 0.216391
0.56814826 -0.047367126 0.20427205
0.56601512 -0.075068392 0.22535048
0.53615993 0.026083721 0.21242325
0.56613797 0.027312784 0.20991915
0.58170205 -0.038067546 0.21777104
0.54185134 -0.0471659 0.23939043
0.53973883 0.030754043 0.2023401
0.56789136 0.025822708 0.21246925
0.59327382 0.014974443 0.24877545
0.58297479 -0.018344373 0.25296509
0.59006768 0.017452426 0.24790297
0.52520645 -0.04108686 0.21856101
0.54929137 -0.061141524 0.23984206
0.55917603 0.035174575 0.24989364
0.52258575 -0.038241193 0.25219786
0.51577413 -0.025027599 0.25211653
0.52471441 -0.03973319 0.22483884
0.55476213 0.03290299 0.21335027
0.55665058 0.036134243 0.24599151
0.57433844 -0.043420311 0.21124633
0.5200991 -0.035335731 0.22560523
0.54465574 -0.061282694 0.23724775
0.56045008 0.029769994 0.24568555
0.51314592 0.0083295852 0.25113717
0.56066495 -0.049730815 0.23707695
0.51898289 0.0096816495 0.22585551
0.54869145 0.034820814 0.24730322
0.53065985 -0.04414735 0.22970946
0.53447235 0.029016234 0.24354194
0.57673478 -0.04265032 0.22930816
0.55576551 0.032567389 0.20145564
0.56500077 -0.04941342 0.24901704
0.56747437 -0.043476798 0.2558772
0.55278552 -0.052725114 0.24116091
0.5297758 -0.042593695 0.2430734
0.55921304 0.031952977 0.21504
0.52864242 -0.040821742 0.20854352
0.52030522 0.014091932 0.19189554
0.55129135 0.033731047 0.24554342
0.54637581 -0.050465509 0.22331934
0.54350019 -0.046728656 0.25413877
0.55390924 0.036362294 0.24929507
0.5684225 0.026854778 0.22164021
0.58339214 0.0040232199 0.21418437
0.59318852 -0.025562832 0.25041848
0.5932588 -0.023382857 0.25021902
0.52766907 -0.039971817 0.24479048
0.50924575 0.016070263 0.25094599
0.54493093 0.028659599 0.21153797
0.58598638 0.0096061956 0.24360164
0.52400911 0.019019097 0.24311058
0.58286858 -0.0023016217 0.20652701
0.54174668 0.036981221 0.24998845
0.55734628 -0.052392345 0.23908025
0.54695898 -0.043799385 0.25545073
0.58380878 -0.015998205 0.25243676
0.5439958 -0.04650392 0.24103096
0.5827803 0.00025006547 0.19888495
0.58450311 -0.026560359 0.25449216
0.56750041 0.033279348 0.24590047
0.57487637 -0.04562325 0.23971786
0.55913186 -0.046919767 0.25427067
0.55605882 0.028344633 0.1929657
0.54678863 -0.07408978 0.22217108
0.59151107 0.013667904 0.24872312
0.57088816 0.022389842 0.19258951
0.58420533 -0.0076540452 0.20735662
0.57868093 0.016011536 0.23810364
0.58248502 0.0061660642 0.2369425
0.51158655 -0.025773177 0.23486024
0.53646249 0.027008131 0.25017494
0.54909515 0.033406474 0.23369557
0.54536057 -0.043592025 0.19652355
0.56095636 -0.051192291 0.25065818
0.57637817 0.029160332 0.24711561
0.53653222 -0.047354482 0.21657112
0.57614374 -0.048586562 0.25387403
0.52857548 -0.041973449 0.20878349
0.51287001 -0.027364384 0.22760531
0.51716453 -0.029226216 0.25110644
0.55648136 -0.069304854 0.23412423
0.54987121 -0.07157699 0.23109752
0.53535861 0.027318524 0.24089006
0.52896369 -0.043224294 0.25433257
0.55026484 0.030613432 0.23910017
0.55255663 -0.052463885 0.24236935
0.54890674 0.033878103 0.2466384
0.54210973 0.036374006 0.24838129
0.55123532 -0.049856555 0.23101981
0.55921382 -0.043205697 0.2557019
0.55576128 -0.052125588 0.19618273
0.5317781 -0.043735333 0.23405185
0.5227015 -0.037037596 0.23116302
0.59561598 0.0042997277 0.24875435
0.55089623 -0.045025591 0.19708508
0.51882178 -0.034087867 0.23125602
0.55688357 -0.076615371 0.22701429
0.57436413 0.018652884 0.19305257
0.51706856 -0.029893164 0.23747222
0.55005109 -0.058356039 0.24095204
0.5572986 0.03586261 0.24555287
0.50113142 -0.010979814 0.25099438
0.58259171 -0.00089292915 0.20335604
0.51852715 -0.032469407 0.23635429
0.58748823 0.010377367 0.25073048
0.51815265 -0.030994168 0.2385959
0.58173686 0.013235192 0.24446604
0.58121747 -0.031778611 0.25429174
0.55153626 -0.048698287 0.24346191
0.56641889 0.027239226 0.21136975
0.58469439 0.02211901 0.24803245
0.50215709 0.0021379709 0.25174916
0.50151753 -0.0086602373 0.25020579
0.59479159 0.0020304478 0.24896453
0.51678288 -0.032732688 0.22709905
0.58003831 -0.040936127 0.24458866
0.56919396 0.023975793 0.19826591
0.52927887 0.021499459 0.23368809
0.52747357 0.021110415 0.1931468
0.59547359 -0.026757799 0.25150186
0.54578108 -0.049552899 0.23443563
0.51498586 0.0027474789 0.21834083
0.5636704 -0.044992186 0.25542337
0.56870896 0.025407325 0.23313102
0.58017045 0.0171562 0.24194032
0.58445001 -0.0037696094 0.22118697
0.57097459 -0.048067231 0.24428581
0.53174573 -0.042174131 0.23493823
0.54645562 0.030516082 0.22820292
0.5828743 -0.026989101 0.25465474
0.51020378 -0.024427991 0.22698632
0.55692935 -0.051822171 0.21841007
0.56462914 0.027473446 0.20110328
0.5665288 -0.071613856 0.22972625
0.51546007 -0.029368231 0.236646
0.54310054 -0.050939035 0.25433916
0.56819248 -0.047550969 0.22348306
0.53914726 0.03508053 0.24583527
0.55356896 0.031103857 0.2404945
0.53473437 0.031430125 0.24614573
0.57689404 0.01807279 0.2359571
0.57587683 0.018238416 0.21522312
0.58417696 -0.0033975348 0.23620878
0.58431035 0.00087003899 0.21912032
0.54790413 -0.050462365 0.22266074
0.56577373 0.028275162 0.2131418
0.57125157 -0.043355551 0.21383169
0.54395932 -0.049670737 0.22255735
0.55248564 -0.065395363 0.23841833
0.51539922 -0.027959788 0.23800242
0.59072149 -0.018063141 0.25088939
0.56389713 -0.046991114 0.23587382
0.53472346 0.026171058 0.23672591
0.56148517 -0.07734707 0.21965089
0.57445168 0.020274861 0.23220846
0.54657453 -0.049994137 0.21018305
0.56739104 -0.047225762 0.23380317
0.54008269 0.027776392 0.25065902
0.56884003 0.026812032 0.24214283
0.51462239 0.0033869485 0.23506081
0.51199156 -0.026819889 0.21534941
0.52057922 0.014246155 0.2416504
0.5579502 -0.051516533 0.2381514
0.59661227 -0.021421086 0.25257528
0.55646324 -0.050009232 0.2288751
0.58417493 -0.0043486007 0.21519589
0.55594277 -0.051230438 0.2453572
0.55317348 -0.053141154 0.24892217
0.56223977 0.026236853 0.19405375
0.54231191 -0.044435527 0.25519294
0.59175026 0.013095632 0.2482738
0.54551262 -0.050463412 0.22623652
0.58251429 -0.019700531 0.25036281
0.51383483 0.021480551 0.25063431
0.53279662 -0.044944793 0.21148507
0.58133203 0.0098548643 0.22685982
0.53126067 -0.041965265 0.23618583
0.54864848 -0.069839261 0.23443124
0.57698333 0.017671702 0.23570906
0.53510118 -0.048587829 0.24953185
0.51488036 0.00092795241 0.24741194
0.51419133 -8.9300651e-05 0.21819288
0.57300156 0.019597031 0.19843343
0.58390421 -0.037017867 0.24925125
0.56561232 0.026795398 0.21039364
0.51375502 -0.0021667024 0.24573335
0.58957291 -0.024068831 0.24970874
0.5234319 -0.03657366 0.2469088
0.55739141 0.03025032 0.20725279
0.59563816 -0.022983981 0.24830875
0.51165777 0.02532587 0.25230294
0.54202044 0.032110792 0.20321311
0.52275312 -0.039237756 0.19928245
0.52695245 0.023233816 0.24911553
0.5510357 -0.048825409 0.24309918
0.55319124 -0.051562499 0.19946177
0.55615765 0.029182669 0.23076668
0.50170124 -0.011986253 0.25055766
0.5500294 0.030127106 0.21277069
0.57245469 0.026062962 0.24894761
0.55799264 0.033211909 0.23968543
0.55282199 -0.059100714 0.24053687
0.54414922 -0.049299099 0.23369475
0.52066803 0.014899004 0.24201049
0.54909861 -0.045080334 0.19607906
0.54583085 -0.058797125 0.23971348
0.57102996 0.032856911 0.2478883
0.5731144 0.029678486 0.24631841
0.50976914 -0.03111778 0.25295714
0.57627928 0.019042222 0.24311239
0.5031181 -0.014726692 0.25200412
0.54192424 0.031868733 0.24587011
0.55457139 -0.051512856 0.19628824
0.58318305 -0.027534423 0.2544181
0.51450026 -0.00014875646 0.21927084
0.51872295 -0.031826198 0.24922223
0.57035601 0.025757326 0.23676276
0.5495345 0.028463189 0.2499658
0.57573855 0.030573091 0.24700116
0.53426087 0.026442297 0.23957495
0.57822824 -0.040366251 0.21823731
0.56721014 -0.048181072 0.2163306
0.55597275 0.032791737 0.2429976
0.583489 -0.0030284068 0.23069572
0.5749529 0.020111488 0.24048108
0.51744843 0.023157617 0.24975123
0.51828581 -0.033678304 0.22450046
0.54434794 -0.045710053 0.24180603
0.58756119 -0.041523535 0.25193697
0.5485822 -0.060285587 0.24009286
0.51525456 -0.029317224 0.25326106
0.58356047 0.0027408744 0.23634617
0.59584779 -0.025220666 0.2515974
0.57188165 0.021672832 0.20748785
0.56538302 0.027290996 0.19585916
0.51829773 -0.039688628 0.20149484
0.55416465 0.033426691 0.23643368
0.53183615 0.024652962 0.23453009
0.51442957 0.00057642988 0.19983162
0.58089155 -0.033830695 0.25395608
0.54799443 -0.05691357 0.24091192
0.55100036 -0.053618144 0.25017145
0.51219553 -0.0037851415 0.24789421
0.55132055 0.032326207 0.21107584
0.54952252 -0.051798142 0.21648037
0.51057601 -0.023203138 0.21590437
0.52756327 -0.041152395 0.25101563
0.51194263 -0.031897657 0.2535491
0.57037276 0.025002826 0.222675
0.59187639 -0.025277002 0.25079292
0.5149436 -0.033045918 0.20827794
0.53755468 -0.049176302 0.24026793
0.56498212 0.029137967 0.23366322
0.54969698 -0.050790709 0.22847736
0.56651771 0.026390972 0.23963156
0.54357159 -0.064822465 0.2354068
0.51769572 -0.035432559 0.21341078
0.53049773 0.033932991 0.248466
0.57183695 -0.04794335 0.2463811
0.51011616 -0.0036093139 0.25501001
0.54157853 0.028927777 0.25052813
0.56222057 -0.049945023 0.23782443
0.54743534 0.031566441 0.23091824
0.5018217 -0.0059849457 0.24963573
0.58455372 -0.00680466 0.2122326
0.58255035 0.0086839776 0.23883598
0.54005265 -0.04621378 0.23912695
0.57942677 -0.026762053 0.25432435
0.5842309 0.015319848 0.25013167
0.52403355 -0.039724704 0.20823143
0.55939239 -0.048457325 0.21130283
0.55053425 -0.048350882 0.25401199
0.57990694 0.012187585 0.21021409
0.55025053 0.033655815 0.24593644
0.57461298 -0.04224867 0.21557721
0.58455962 -0.0031655557 0.23387757
0.5666225 -0.075024486 0.22512113
0.55263335 0.030138204 0.23781216
0.52783799 -0.042513348 0.25022212
0.55446804 -0.050326414 0.22866827
0.55273503 0.034052461 0.23883556
0.54647481 -0.04966753 0.23039186
0.58769673 0.017027574 0.24751233
0.52742082 -0.039534058 0.21289968
0.51379818 -0.027799973 0.23590633
0.51576054 -0.029431479 0.23575631
0.58612901 0.016548181 0.24850313
0.58986229 0.0085374583 0.24629427
0.52471918 -0.036033168 0.23580694
0.58320093 -0.01760684 0.25227693
0.57981241 0.014272515 0.22659601
0.54702473 -0.043327734 0.25583416
0.5785023 0.017521452 0.24589205
0.51403809 0.0015042551 0.23291636
0.58479345 0.0130082 0.25142035
0.58451301 -0.004168258 0.21686456
0.5623799 0.029216526 0.20524353
0.51559836 -0.031443942 0.22470595
0.54349965 0.029349459 0.2494237
0.52230072 -0.035327952 0.25039172
0.53981191 0.039197624 0.25193897
0.54716086 -0.050291024 0.23687933
0.57697302 0.014789771 0.19431077
0.5558207 -0.056063574 0.24032734
0.56432849 0.028075758 0.19461638
0.51432568 -0.0017620147 0.21711767
0.58300513 -0.014996589 0.25139031
0.56489205 0.027299568 0.23838142
0.56213498 0.030138694 0.21797848
0.58727348 0.013381343 0.24660213
0.5430423 0.031830385 0.24413094
0.51223695 -0.030253757 0.20482284
0.58038455 0.020019684 0.24483809
0.54848856 0.027536694 0.20935418
0.57624245 -0.046108384 0.24582162
0.51413864 -0.028979432 0.22709478
0.58058482 0.013589094 0.23192251
0.54414427 -0.047170661 0.2406186
0.57529205 0.018766431 0.21936063
0.59478796 0.0034285374 0.25092104
0.51086789 -0.033058483 0.25211501
0.54084229 -0.049521238 0.23846398
0.51279378 -0.007688378 0.24636906
0.58395237 0.0018415616 0.23860094
0.58413386 -0.0061349436 0.23687324
0.53354847 0.026862569 0.24137564
