# .PCD v0.7 - Point Cloud Data file format
VERSION 0.7
FIELDS x y z
SIZE 4 4 4
TYPE F F F
COUNT 1 1 1
WIDTH 1384
HEIGHT 1
VIEWPOINT 0 0 0 1 0 0 0
POINTS 1384
DATA ascii
0.54817402 -0.020192096 0.22420245
0.57860845 0.0079465946 0.25944045
0.55936646 -0.0076692794 0.23307142
0.56066692 -0.0020940839 0.23517413
0.54545885 -0.031761624 0.22793321
0.50759554 -0.067426875 0.21538706
0.54799426 -0.025990594 0.2324096
0.59947753 0.021358075 0.23964961
0.5960778 0.021458821 0.24358808
0.57067877 -0.018241152 0.22566627
0.50834721 -0.074019484 0.21633942
0.54151523 -0.048909273 0.22827138
0.59639674 0.021485668 0.24470726
0.50894493 -0.06418597 0.21579416
0.52489483 -0.056501038 0.22594702
0.561221 -0.010981807 0.23297453
0.5366233 -0.037674423 0.22289999
0.57051885 -0.023048386 0.22155991
0.51973057 -0.066172041 0.21844524
0.54034632 -0.042999271 0.22583707
0.55385458 0.0028196245 0.23244324
0.53508979 -0.077507906 0.21199946
0.58555001 0.015441647 0.25590798
0.52014399 -0.067535467 0.22202863
0.50974441 -0.078852601 0.21487591
0.59114683 0.034475196 0.18868126
0.55280358 -0.014344423 0.23139794
0.51942998 -0.070070177 0.2198818
0.51931077 -0.072466992 0.21929781
0.55216593 -0.0088904304 0.23101994
0.51229131 -0.078071468 0.21546322
0.54630488 -0.024710909 0.22544886
0.54286629 -0.037015151 0.2274289
0.53879833 -0.020875281 0.22855066
0.52292484 -0.079588935 0.21585222
0.56350034 0.003999915 0.22071651
0.56645757 0.007598117 0.26842886
0.53115368 -0.082869098 0.21038951
0.56787264 -0.012362476 0.23042969
0.50812042 -0.082184918 0.21290113
0.59702355 0.022713099 0.23980452
0.56326884 -0.02500508 0.22715266
0.56096804 -0.019861788 0.22876646
0.52929395 -0.059169888 0.22312476
0.53536707 -0.025803093 0.2284904
0.563923 -0.029793706 0.22395934
0.59062344 0.035666894 0.22505455
0.58371019 0.0056713023 0.22852987
0.54905087 -0.05499924 0.21983825
0.53037125 -0.028944656 0.22620331
0.59782112 0.035368506 0.19159654
0.52458769 -0.063035034 0.22192761
0.54775697 -0.032810736 0.23131119
0.59056062 0.019855354 0.25668827
0.59085816 0.011432402 0.25640801
0.55465096 -0.018235918 0.22868319
0.52948284 -0.06919989 0.21903755
0.59443647 0.034945104 0.19842307
0.5698241 -0.0063178246 0.23204713
0.55637866 -0.018440455 0.23164473
0.54699445 -0.013742947 0.2287299
0.53706181 -0.071929879 0.21581274
0.51966548 -0.06439279 0.2227373
0.54823077 -0.048502911 0.22538643
0.50554055 -0.069724768 0.21394445
0.53386551 -0.066764735 0.22154996
0.53372484 -0.058411919 0.22656102
0.57531601 0.0025879445 0.23018454
0.54866499 -0.038497243 0.22632304
0.55909377 -0.023115927 0.2288169
0.54940903 -0.032009065 0.22747464
0.54742759 -0.057505459 0.21899441
0.55646145 -0.0092887264 0.22715107
0.54789573 -0.051948931 0.23006678
0.52968925 -0.084569685 0.20872535
0.59975696 0.031697433 0.22249316
0.53563482 -0.072567411 0.21726932
0.51304811 -0.05915273 0.21899842
0.5383184 -0.047397904 0.22649918
0.52143544 -0.051222295 0.2225751
0.57769066 -0.0028683348 0.22959329
0.53767699 -0.033331733 0.22787409
0.5032497 -0.073137298 0.21290648
0.59813309 0.03310157 0.20188001
0.54269522 -0.055740364 0.22455083
0.52861506 -0.068038084 0.22478753
0.54855132 -0.053240061 0.2223649
0.60196733 0.021008113 0.23754004
0.55887908 -0.04022174 0.22346139
0.52871901 -0.058935117 0.22226542
0.50084549 -0.076646701 0.21173628
0.57917649 -0.0079507856 0.26903659
0.55623496 -0.040713985 0.22427449
0.54083997 -0.03863512 0.23007557
0.557998 -0.017448815 0.23189045
0.55638683 -0.020722695 0.22892591
0.56113905 0.0086924322 0.23391141
0.55447447 -0.044284608 0.22981292
0.5147118 -0.076644361 0.21645929
0.52548617 -0.067761429 0.22198111
0.55274546 -0.046670847 0.22335793
0.53917271 -0.056304239 0.22444564
0.50810283 -0.068956502 0.21588367
0.58007193 0.016619259 0.25664276
0.56848228 0.0078221252 0.21604927
0.52604395 -0.049571596 0.22626129
0.51531917 -0.071593381 0.21915725
0.52361429 -0.079240173 0.21577449
0.55878115 -0.02841853 0.22820614
0.5558393 -0.0073584449 0.22734483
0.59460193 0.025905784 0.23745486
0.50952452 -0.065262102 0.21666402
0.58398032 0.027600123 0.23961349
0.5739578 -0.022047138 0.21823364
0.51728058 -0.088281222 0.21044275
0.57696027 0.0092989672 0.23471464
0.51466322 -0.086175203 0.21158341
0.53603911 -0.061777342 0.22764817
0.5514679 -0.054535877 0.21785879
0.57305676 -0.0066923141 0.23045816
0.59060216 0.024824973 0.24370681
0.52554291 -0.071877271 0.22069363
0.58026248 -0.0096140578 0.2231558
0.58005309 -0.011164372 0.22229928
0.50293475 -0.074727349 0.21291806
0.57826406 0.029187417 0.24196444
0.57646656 0.014228117 0.26043656
0.55079567 -0.03472599 0.22772415
0.57966542 0.022757297 0.24849173
0.59260237 0.03521765 0.19011295
0.53890795 -0.045351051 0.22949943
0.55993742 -0.012612304 0.22942384
0.5550319 -0.041713092 0.22914477
0.5267598 -0.035044935 0.22653484
0.55844665 -0.021566486 0.22878908
0.57984877 0.0041541047 0.22923081
0.59243202 0.02562787 0.23984307
0.51907605 -0.079654507 0.21618801
0.54439199 -0.015606889 0.22866729
0.54238105 -0.041796885 0.22992203
0.52929896 -0.052112773 0.22413822
0.54277617 -0.055141289 0.22488181
0.53751212 -0.044717308 0.22598323
0.56032038 -0.013524535 0.2319697
0.59004563 0.023609787 0.24857131
0.53645945 -0.043971337 0.22714013
0.57473278 0.0086209606 0.23437451
0.56721008 -0.014844115 0.22919641
0.50535339 -0.084787384 0.20949931
0.5423162 -0.061521735 0.22860859
0.51693213 -0.074241802 0.21806771
0.57097298 0.022189485 0.23560332
0.54021591 -0.050783802 0.2275458
0.56935608 -0.026794534 0.21976663
0.51806569 -0.07301262 0.2182284
0.55829287 0.00074984599 0.23464705
0.57420796 0.0046747299 0.23388879
0.53632283 -0.078396812 0.20969439
0.53277719 -0.067733854 0.22141756
0.54970586 -0.0505023 0.23088011
0.52720314 -0.049985893 0.22657661
0.55461174 -0.044743877 0.22374654
0.51519299 -0.065190971 0.21975283
0.57287508 0.028688226 0.23735642
0.53969711 -0.044876352 0.22621094
0.51331061 -0.080517061 0.21555842
0.55943608 -0.02837077 0.22795954
0.53560448 -0.055093829 0.22419648
0.52763587 -0.090954334 0.20321043
0.50967407 -0.080895975 0.21468414
0.52789962 -0.060200162 0.22183949
0.525693 -0.066424012 0.2236979
0.55175614 -0.04410867 0.22958826
0.51131099 -0.077320248 0.21465713
0.57946563 0.011979731 0.23532775
0.53970778 -0.06604211 0.219531
0.51244682 -0.053159136 0.21768479
0.53833961 -0.04162465 0.23059058
0.54932833 -0.059210788 0.2146664
0.54160106 -0.04759559 0.22988296
0.5572378 -0.016205227 0.22883166
0.55901104 -0.023728399 0.22847851
0.56808549 0.010438107 0.27004257
0.50924176 -0.082946129 0.21210003
0.55137002 -0.016225906 0.22530049
0.53886306 -0.042338997 0.23034404
0.55915737 -0.014223197 0.22923137
0.59811997 0.032899037 0.19947234
0.57224125 0.014780093 0.23487677
0.55377424 -0.019834893 0.22807792
0.59692788 0.033174381 0.2240019
0.53943014 -0.058647729 0.22415365
0.56406891 -0.0022355213 0.2341858
0.52345771 -0.03852025 0.22490889
0.52834255 -0.041049607 0.22701287
0.54438084 -0.057985835 0.22920296
0.55636895 -0.02792641 0.22827706
0.51959461 -0.069477782 0.21470456
0.57905066 0.028534785 0.24190441
0.54157871 -0.039250866 0.22635798
0.55864108 -0.042912148 0.22067779
0.56457269 -0.000528417 0.23436171
0.58206469 -0.0042163706 0.26532522
0.60076821 0.022916332 0.23679057
0.55372447 -0.035349727 0.22931264
0.57022744 -0.025205426 0.22036818
0.52707708 -0.074740723 0.21830298
0.59030807 0.021938525 0.24956551
0.59715146 0.036580522 0.1885336
0.56982267 -0.0087588327 0.2305603
0.56391376 0.0051840376 0.23416296
0.54827863 -0.016223693 0.22894105
0.56802326 0.0036131865 0.23385239
0.53352523 -0.042570934 0.22237599
0.5378812 -0.038063545 0.23026547
0.53370506 -0.065590091 0.22233327
0.52107292 -0.065295272 0.22282551
0.54578948 -0.022267498 0.23126855
0.59544104 0.034428023 0.19833475
0.60122907 0.027878255 0.22948596
0.53024751 -0.067139618 0.22096686
0.58564883 0.029776417 0.23873059
0.5149495 -0.074698329 0.21347877
0.57558119 0.0054015955 0.2338074
0.50798845 -0.07158827 0.21658742
0.59914839 0.032930125 0.21939033
0.53791994 -0.056098063 0.22509865
0.53554231 -0.030359831 0.22792934
0.54755098 -0.024603102 0.22611687
0.54498279 -0.042355496 0.22955044
0.54312932 -0.037789896 0.23057221
0.59084624 0.0054277801 0.25773171
0.58587438 0.014435281 0.257709
0.54148549 -0.05760809 0.22392197
0.57163042 -0.016042598 0.22660539
0.57547551 -0.011808049 0.22756712
0.51301771 -0.067245923 0.21977812
0.5994724 0.032829203 0.19384378
0.5187695 -0.052133881 0.22182785
0.55434084 -0.0065657231 0.23119344
0.58297795 -0.001740833 0.22681031
0.53539604 -0.050312489 0.22470896
0.54111475 -0.03270046 0.22532268
0.55449581 -0.038590461 0.2285805
0.55141014 -0.0048258323 0.2295538
0.58557099 0.01800349 0.25292879
0.58860046 0.018312857 0.25781786
0.53364974 -0.049230751 0.22485882
0.56065869 -0.023608247 0.22785816
0.60040987 0.032101754 0.22067176
0.56794238 -0.010850426 0.23396546
0.52701026 -0.077348538 0.21798642
0.53342092 -0.077550963 0.21392015
0.55336148 -0.056535456 0.21335445
0.59582239 0.024816521 0.23765288
0.53998679 -0.04411152 0.2296385
0.53061515 -0.064008027 0.22635613
0.55421752 -0.0097231595 0.22486827
0.5586651 -0.022961089 0.23088808
0.5279901 -0.055152126 0.22724685
0.5909223 0.015122125 0.25738499
0.5632233 -0.032565162 0.22256508
0.58604074 0.031123323 0.23894437
0.53366041 -0.073007978 0.21783198
0.5539189 -0.02413694 0.22817266
0.51212311 -0.071886867 0.21858193
0.5265348 -0.034858268 0.22655201
0.54678583 -0.045613047 0.2265112
0.55527562 -0.027567092 0.23108755
0.5162977 -0.086360432 0.2128482
0.51982272 -0.062559418 0.2228207
0.52079552 -0.065595575 0.22245541
0.5662905 0.0040058955 0.2195162
0.54208684 -0.062606186 0.22062324
0.53696859 -0.025394043 0.22964998
0.51884598 -0.077203639 0.22230861
0.55390471 -0.015654221 0.2280817
0.5425868 -0.023838231 0.23110071
0.5689401 -0.023842921 0.22298472
0.54527378 -0.055552326 0.22357997
0.58439755 -0.0099053886 0.26809227
0.51687759 -0.079384625 0.21478912
0.59061605 0.036496811 0.22323439
0.58332169 0.026366239 0.24071297
0.53176975 -0.068103902 0.22161615
0.57510203 -0.014572775 0.22603966
0.51629424 -0.06984733 0.21337993
0.53032684 -0.04369111 0.22748047
0.53776371 -0.052672688 0.22754528
0.59437323 0.036661152 0.18839774
0.52202821 -0.075966947 0.2168186
0.58009458 -0.0084233209 0.26895586
0.55210519 -0.055403788 0.21581727
0.5378741 -0.033809561 0.22934006
0.5451932 -0.059138067 0.22018453
0.56819528 0.0066743293 0.21820614
0.57335365 0.014504354 0.23526923
0.58583319 0.016365658 0.25779623
0.52451962 -0.063947186 0.22295985
0.54717004 -0.043524332 0.22989398
0.53383762 -0.025692638 0.22775258
0.54827046 -0.014198998 0.22907701
0.60010344 0.021495443 0.23929027
0.52543873 -0.064175002 0.22328411
0.51946622 -0.079488672 0.21555483
0.52532458 -0.065294355 0.22310781
0.56942672 0.021511851 0.23427519
0.53749949 -0.023118466 0.22890659
0.52631831 -0.053731814 0.22146904
0.54531491 -0.04972985 0.22970387
0.55574316 -0.010631986 0.2260897
0.53843069 -0.036982659 0.22657648
0.58591896 0.016916715 0.23701358
0.5582481 -0.029964015 0.22748877
0.56039286 -0.0082036518 0.23013027
0.51870555 -0.087167218 0.21176609
0.60074425 0.032292742 0.21785446
0.54371607 -0.022023268 0.22095793
0.55984271 -0.014041656 0.23133238
0.58459234 0.01578705 0.25481614
0.52986115 -0.062808208 0.22588488
0.53252864 -0.043850116 0.22854258
0.57239527 0.0093309972 0.23178971
0.58734858 0.026596362 0.19170615
0.54062426 -0.05548786 0.2291595
0.50563669 -0.077774324 0.21347095
0.54256415 -0.045405272 0.22929332
0.57862836 0.027874237 0.23983778
0.51217002 -0.082935862 0.21316324
0.56195343 -0.027519168 0.22617443
0.5454815 -0.040878665 0.22955379
0.54593021 -0.064521387 0.21410517
0.59869188 0.027321402 0.23094259
0.58491683 0.011154683 0.2326076
0.56296682 -0.021014186 0.22846724
0.53971446 -0.032877095 0.22729346
0.53168964 -0.05097108 0.22825316
0.52334428 -0.057121456 0.21981844
0.5803619 0.0232492 0.2491411
0.52832139 -0.046493821 0.22704518
0.58097893 0.0016288433 0.22846068
0.51379156 -0.070850074 0.21888727
0.50477976 -0.073918805 0.21450275
0.55128664 -0.024450861 0.22880106
0.54419404 -0.02625389 0.23153292
0.52961183 -0.084772423 0.20987876
0.5538156 -0.024068438 0.23153307
0.5370599 -0.045657095 0.22560094
0.51854384 -0.072093837 0.21916227
0.56195486 -0.0251009 0.22764739
0.58777052 0.029289305 0.18974192
0.56624931 0.0061460547 0.2168429
0.57695705 0.012485484 0.23571023
0.58191651 -0.0099107064 0.26915962
0.51345736 -0.057790536 0.2188693
0.54087818 -0.033447936 0.22770011
0.51100248 -0.06013963 0.21717469
0.58245093 0.026700359 0.24237265
0.55837142 -0.029051051 0.22799318
0.56676614 0.0015185389 0.22350687
0.57237309 -0.017813433 0.22521369
0.56965762 -0.0075504188 0.23136614
0.58852035 0.010536073 0.25933474
0.52346367 -0.068943486 0.22250105
0.56468982 -0.0057404451 0.23463936
0.53301996 -0.065936632 0.2224105
0.56927371 0.0046306537 0.22037078
0.57053572 0.0024771413 0.23436022
0.57190269 0.0077315164 0.27144393
0.58312696 0.031103076 0.23001733
0.56960124 -0.023794711 0.22273581
0.5315395 -0.050299063 0.22866841
0.53107488 -0.08069738 0.21299043
0.50687921 -0.071142107 0.2149692
0.59255707 0.033925258 0.22919993
0.53468376 -0.052769337 0.22475611
0.55333543 -0.01824013 0.23151554
0.54754037 -0.020934038 0.23048371
0.56820017 0.0033401933 0.22168566
0.51018244 -0.084669076 0.21217328
0.54909527 -0.02680142 0.22818421
0.54669595 -0.060543612 0.21745108
0.5488717 -0.036531117 0.23051718
0.55680233 -0.044698726 0.23036276
0.53821695 -0.03421054 0.22711129
0.58716208 0.0055855056 0.26186743
0.548783 -0.024258206 0.22872798
0.59166294 0.016084971 0.23401652
0.52036577 -0.064443365 0.22307512
0.53346717 -0.054512549 0.22794618
0.53051811 -0.072643951 0.21937653
0.52138883 -0.060814995 0.22359322
0.53075153 -0.080720954 0.21311218
0.53050566 -0.053146102 0.22736776
0.54559666 -0.0097398534 0.22822765
0.58282036 0.0029949511 0.22851796
0.51749378 -0.075231835 0.21763825
0.53670323 -0.054115418 0.22433014
0.54182553 -0.039839305 0.22589552
0.58801007 0.0070688711 0.22881581
0.58522326 0.030807821 0.2344089
0.57314664 0.027473122 0.23660558
0.52788472 -0.035978273 0.22644898
0.54486763 -0.066945024 0.21432002
0.55559534 -0.038829807 0.22826755
0.51080829 -0.069685154 0.21814851
0.58492988 0.029815655 0.23646542
0.59618294 0.01638802 0.23852046
0.55879289 -0.0098838815 0.23248374
0.53776246 -0.061385959 0.22792375
0.5680958 0.0063729142 0.21717465
0.51523626 -0.077254795 0.21428907
0.52598506 -0.045658801 0.22640964
0.51985657 -0.05570833 0.22247979
0.52805537 -0.081424512 0.2150628
0.51414573 -0.074869826 0.21746503
0.5722174 -0.0031395433 0.23048763
0.5764026 0.0064269244 0.26068741
0.55060357 -0.031280916 0.23125814
0.5421263 -0.0510308 0.22641572
0.52311474 -0.066724069 0.22286531
0.52347404 -0.084822044 0.21367663
0.58502054 0.025954712 0.24407822
0.57367766 -0.0021120324 0.23049904
0.58377767 0.023864541 0.24726902
0.56733084 0.0014588212 0.23459868
0.59821898 0.020379137 0.24593243
0.50430578 -0.081598066 0.21129069
0.54027253 -0.042948201 0.23064965
0.5563764 -0.0099184215 0.22680317
0.52993524 -0.086795524 0.20228791
0.57447207 0.012288158 0.23271742
0.52483249 -0.059605114 0.21976002
0.51671648 -0.073276751 0.21866404
0.5609262 -0.010227556 0.22996813
0.51939726 -0.086817347 0.21168813
0.58077782 0.012110276 0.23244342
0.56873494 0.015424124 0.23347366
0.52930957 -0.064055175 0.22409277
0.52575862 -0.081888586 0.21574682
0.53985292 -0.061414178 0.22831984
0.5428009 -0.032270048 0.23176157
0.53807807 -0.065825537 0.22159341
0.57643771 0.010700056 0.23546821
0.54294962 -0.031345528 0.22618613
0.60204959 0.032859739 0.21691929
0.54455894 -0.028215948 0.23163426
0.51970631 -0.056777246 0.222964
0.53236246 -0.042631067 0.22693345
0.52970874 -0.067110494 0.2218447
0.50368255 -0.080307595 0.21190874
0.59802097 0.017230824 0.23950468
0.56791127 -0.016922142 0.22763501
0.56868422 0.01112372 0.23433381
0.53206831 -0.085013986 0.20371999
0.56378895 -0.0010821188 0.22905305
0.59304303 0.015696671 0.23444335
0.57030135 0.0082351696 0.2344225
0.4975833 -0.078599639 0.20854832
0.56917715 0.0043203589 0.21934398
0.56686842 0.01509165 0.23358174
0.59679633 0.03559158 0.19188821
0.57894051 0.012879185 0.25732875
0.5427255 -0.047840361 0.22956291
0.52068293 -0.060764015 0.22325268
0.54559892 -0.05078325 0.22634915
0.58487046 0.0034524067 0.22793373
0.55168825 -0.009407551 0.23038262
0.51503718 -0.065411858 0.22085956
0.53829712 -0.067034736 0.21951997
0.58271402 0.0096104676 0.25748172
0.52359438 -0.046020884 0.22350883
0.52772444 -0.048076976 0.22691083
0.55345124 -0.022062223 0.23146458
0.55779642 -0.020009676 0.22876702
0.52512193 -0.03509707 0.22561906
0.51777518 -0.079834647 0.21538146
0.53565502 -0.05864349 0.22450098
0.54964507 -0.041793406 0.22639075
0.51547247 -0.077014506 0.21659374
0.5918811 0.037905604 0.21921158
0.50950837 -0.085398816 0.21127394
0.5145247 -0.057867616 0.21938415
0.54944378 -0.010200921 0.2299483
0.52333087 -0.056550819 0.22507256
0.59988505 0.035377644 0.18815804
0.52996922 -0.055024471 0.22704799
0.5697062 0.0046963408 0.23419964
0.50732476 -0.08461839 0.21067995
0.58248305 0.023780124 0.24660626
0.51885527 -0.076847576 0.22206885
0.53872359 -0.057606149 0.22882979
0.56318563 -0.009611479 0.23368455
0.53446501 -0.027842771 0.22785579
0.56861103 -0.021433599 0.22459139
0.55106223 -0.0030783622 0.22930329
0.52242094 -0.054435119 0.21970917
0.58998299 0.021202223 0.25019249
0.52662873 -0.054563697 0.22695164
0.51537561 -0.071756378 0.21260335
0.54054147 -0.034275975 0.2253381
0.5147748 -0.069756113 0.21886772
0.5242005 -0.086554267 0.21231529
0.5736056 0.0089462511 0.26091117
0.56385261 -0.011635096 0.23132074
0.53055888 -0.032591905 0.2263198
0.57352811 0.010674628 0.26199695
0.5714941 0.0087924842 0.23411936
0.58156043 0.026352728 0.24402457
0.50300854 -0.071337312 0.21275187
0.53123456 -0.043185763 0.22121789
0.60272616 0.025723116 0.23281865
0.5289188 -0.044900466 0.22718734
0.55139464 -0.01528096 0.2246642
0.58166432 0.027352991 0.24243268
0.57997727 -0.0030076494 0.22854587
0.51651806 -0.059079148 0.2209114
0.54337472 -0.03016169 0.22740731
0.53151882 -0.082543999 0.21043392
0.55169171 -0.022306325 0.23169518
0.57241601 -0.015072811 0.22686562
0.5282563 -0.08229962 0.21444497
0.51073056 -0.067716293 0.21820603
0.54106635 -0.049910374 0.22630022
0.53023767 -0.069995135 0.22110865
0.53069562 -0.061313681 0.22550428
0.57190651 0.023003211 0.23535047
0.55325836 -0.053207591 0.21791449
0.59126246 0.023344904 0.24822496
0.51233792 -0.072848007 0.21798801
0.58780479 0.019793224 0.25205952
0.53540313 -0.039569128 0.22918068
0.51829034 -0.048101433 0.22048616
0.58321506 0.018502245 0.23673478
0.5449003 -0.030408612 0.22785902
0.52422923 -0.035203017 0.22506273
0.55440307 -0.033609193 0.22813055
0.55266529 -0.04258699 0.22946447
0.58534658 0.0054817302 0.22772552
0.55607796 -0.015892765 0.22826591
0.59979647 0.033066485 0.21774846
0.51588494 -0.086017974 0.21287972
0.50476104 -0.079140015 0.21334769
0.53181261 -0.063386686 0.22322817
0.58973074 0.028201742 0.24057059
0.56776029 0.0026228949 0.2343342
0.56537831 -0.0024102393 0.23381093
0.53288257 -0.048071913 0.22464351
0.59114736 0.010373262 0.25688529
0.5645566 -0.0017075896 0.23483643
0.5228107 -0.050045181 0.22282691
0.52616048 -0.083638795 0.21451117
0.55968726 -0.01975422 0.23109479
0.54612827 -0.049846362 0.22545283
0.59841555 0.015994988 0.25129879
0.58175087 0.017239541 0.25252521
0.50805795 -0.065636694 0.21560213
0.59918988 0.035225064 0.18855716
0.55180067 -0.0036909964 0.22924693
0.56687981 -0.0048809396 0.23291771
0.52914232 -0.082828172 0.21374992
0.52813417 -0.061812378 0.22469221
0.50702864 -0.081794709 0.21260415
0.58734745 0.013974292 0.25610897
0.58816844 0.031059213 0.18839926
0.52034676 -0.050199106 0.22139354
0.5027473 -0.075377129 0.21369149
0.55367595 -0.011847282 0.22523341
0.55601412 -0.0010123233 0.23347975
0.53060043 -0.062880017 0.2240472
0.54699761 -0.036897656 0.23059613
0.57575446 0.016638484 0.23542313
0.59189576 0.038468011 0.21883288
0.53573626 -0.058042508 0.22483301
0.55821913 -0.012085675 0.23190548
0.52068895 -0.079398632 0.21492305
0.54026961 -0.020626601 0.2295222
0.59486431 0.020677703 0.24844682
0.54324085 -0.057737675 0.22952743
0.57594645 0.026177062 0.23850249
0.56501776 -0.018958136 0.22761238
0.52993953 -0.044639751 0.22792642
0.54133409 -0.060562253 0.22342998
0.5691548 -0.010139815 0.23124436
0.53177202 -0.063687176 0.22306216
0.59975171 0.020115539 0.24290234
0.52234298 -0.072001509 0.21991225
0.52639908 -0.06924928 0.22005558
0.54459971 -0.036535703 0.23093179
0.56440002 -0.0096991817 0.23427033
0.52375782 -0.060291816 0.21979396
0.56278586 -0.039576758 0.21972108
0.53222412 -0.036302306 0.2271812
0.58674484 0.030440839 0.18941915
0.54833299 -0.031275637 0.22892646
0.51290011 -0.088459924 0.20947963
0.50848067 -0.084546179 0.21135236
0.53048629 -0.050202787 0.22491176
0.54976779 -0.019084655 0.2303347
0.55735826 -0.023593454 0.23107475
0.52073419 -0.081539564 0.21558572
0.54285288 -0.061660565 0.22087699
0.51742637 -0.06765826 0.22048235
0.54970527 -0.04540015 0.225412
0.56599724 -0.0062077395 0.23499501
0.53571939 -0.054924887 0.22834235
0.52594358 -0.053585663 0.22595294
0.52391583 -0.064623915 0.22349039
0.49966902 -0.080329105 0.20974301
0.572734 0.0043971217 0.23112944
0.58619744 0.012309317 0.23401652
0.51340938 -0.05998927 0.21857487
0.58398396 0.017957933 0.25236568
0.57700545 -0.016605753 0.22026646
0.52673471 -0.061113697 0.22488324
0.5943923 0.036802843 0.21631768
0.54968905 -0.011535431 0.23044845
0.53925931 -0.027491959 0.23068266
0.55574173 -0.042842705 0.22958843
0.5734818 -0.01939648 0.22129358
0.54583991 -0.059090909 0.21994105
0.51178527 -0.072650492 0.21783769
0.59098256 0.031860311 0.23378994
0.55759633 -0.042596344 0.2286301
0.51418984 -0.060456544 0.22000143
0.54705781 -0.026589923 0.22927774
0.56248933 0.0011899261 0.22428456
0.57359934 0.0070887459 0.23116094
0.5806843 0.011838957 0.25596088
0.53133607 -0.086086936 0.20213
0.55459732 -0.010671647 0.22709309
0.52446318 -0.045080338 0.22466798
0.52596903 -0.057392266 0.22586504
0.51183492 -0.083693288 0.21242505
0.5976004 0.020583834 0.24351466
0.5204491 -0.045626521 0.22211494
0.59959 0.025579454 0.2342585
0.51072055 -0.065989152 0.21676837
0.59629399 0.035250351 0.21653034
0.59701157 0.021981036 0.24156815
0.53965837 -0.03547883 0.23041768
0.54495049 -0.063954182 0.21610761
0.53829575 -0.072796918 0.21352059
0.54503542 -0.041361548 0.22895867
0.59579819 0.02215768 0.24451889
0.52299625 -0.063501835 0.22037166
0.53353268 -0.041277498 0.22827177
0.54451054 -0.051752377 0.22621675
0.57505643 0.017869014 0.23595689
0.59333122 0.036583144 0.18889618
0.52896994 -0.059073556 0.22623229
0.55270654 -0.056583218 0.21360104
0.59120905 0.025425686 0.24177505
0.53543913 -0.051454991 0.22855149
0.59977949 0.031818468 0.2032975
0.50038832 -0.079114862 0.20967081
0.58942956 0.024721881 0.24682532
0.54469281 -0.041498814 0.22616611
0.58769816 0.01119072 0.23270318
0.52964914 -0.089366257 0.19959748
0.55774009 -0.015749309 0.22862221
0.52397686 -0.054550696 0.21946697
0.57277596 0.0060020955 0.21796091
0.50492239 -0.074556969 0.21410841
0.58359402 0.026790041 0.23904182
0.51955348 -0.050755799 0.22191115
0.5335809 -0.071234263 0.21894628
0.51987463 -0.073461033 0.21886663
0.56852406 0.0028507134 0.23195931
0.56355077 -0.010020683 0.23118718
0.51429564 -0.076299094 0.21649104
0.56041187 -0.023019806 0.2283206
0.54140174 -0.062952727 0.22070046
0.57919061 -0.0074084676 0.26867142
0.53423882 -0.076674514 0.2128655
0.53827208 -0.052542828 0.22791339
0.52870208 -0.053069834 0.22375417
0.50078779 -0.077893116 0.21078598
0.537112 -0.039862316 0.22987975
0.55875796 -0.038733438 0.22441928
0.57959229 -0.014575062 0.22041492
0.5419113 -0.028511927 0.22475488
0.56076247 -0.018908422 0.23094144
0.58094555 0.015549483 0.2360473
0.57135648 -0.0045971242 0.23499429
0.59714067 0.035895042 0.19026589
0.57427227 -0.01842065 0.22155544
0.52649349 -0.045528941 0.22677776
0.55065364 -0.055792961 0.21743554
0.55046219 -0.041781474 0.2298757
0.59069008 0.034886237 0.2293641
0.52626473 -0.058715466 0.22504739
0.59853697 0.034483105 0.21480295
0.59409583 0.033812765 0.2260672
0.53226632 -0.04538789 0.22653843
0.56840491 -0.020536127 0.225225
0.55112994 -0.027270859 0.22839306
0.57148188 1.2417793e-05 0.23147348
0.50766057 -0.074794017 0.21675342
0.5331369 -0.024928734 0.22658756
0.56137472 -0.0058431113 0.23069355
0.51910776 -0.073087879 0.21873109
0.51060754 -0.062296674 0.21672522
0.59914654 0.033438951 0.19485343
0.56267959 -0.0067175361 0.23356666
0.57989359 0.019654855 0.23715894
0.5311209 -0.07526926 0.21752307
0.55224162 -0.0083442787 0.23146334
0.53670627 -0.057971768 0.22446778
0.51389122 -0.080698438 0.2143825
0.51910096 -0.072292954 0.21931382
0.60290498 0.029888339 0.22234136
0.53287268 -0.059334449 0.22542408
0.53651166 -0.040530033 0.22771148
0.52757233 -0.067981958 0.22026569
0.5700472 -0.0068337726 0.23534943
0.5772236 -0.00031841017 0.23009934
0.51436466 -0.056291942 0.21910752
0.55335492 -0.044537045 0.22440161
0.5244478 -0.069325775 0.22030708
0.5861119 0.00045462459 0.26416057
0.54767048 -0.058084708 0.21853918
0.56143779 -0.0034182025 0.22906069
0.51256943 -0.081714123 0.2142784
0.57085913 -0.0041844891 0.23503225
0.55971146 -0.023374105 0.22839956
0.55831254 -0.012552657 0.22811617
0.511774 -0.081145883 0.21337545
0.50279212 -0.074089192 0.21331239
0.58119953 0.019805552 0.25106239
0.52051312 -0.069955029 0.22044161
0.57839191 -0.012305083 0.22354783
0.56989461 -0.01677751 0.22688824
0.51295793 -0.072473735 0.21442831
0.58306772 0.021299765 0.25947815
0.52499974 -0.074388094 0.2182218
0.50344437 -0.071732908 0.21404666
0.54609084 -0.041952867 0.22908784
0.55310637 -0.018265154 0.22807115
0.55369151 -0.010690916 0.23186217
0.5936932 0.027689409 0.23538966
0.55818594 -0.01616607 0.23158415
0.59336752 0.027209414 0.23584719
0.51240104 -0.069958426 0.21880011
0.54946381 -0.014285181 0.22965266
0.5719589 0.0043263193 0.21814726
0.59565783 0.034263689 0.22127767
0.5698508 -0.0090961307 0.23492862
0.59522927 0.026528697 0.23549969
0.50197411 -0.0794058 0.21165881
0.56575054 -0.01087793 0.23277111
0.5270561 -0.087048158 0.20956787
0.51334667 -0.081542902 0.21371593
0.53124148 -0.033158224 0.22626771
0.5533669 0.0022916931 0.23179261
0.55337185 -0.0089775193 0.23160167
0.5338589 -0.028675659 0.22826989
0.51046908 -0.070451885 0.21740125
0.54186857 -0.037679531 0.22594909
0.53229672 -0.04857311 0.22899401
0.56406093 -0.0012963599 0.23487426
0.56017923 0.0039983164 0.23399423
0.51585263 -0.082171276 0.21352252
0.5888592 0.016937871 0.25811547
0.55566835 -0.017619196 0.22820131
0.60131055 0.030260075 0.22405258
0.54947573 -0.029824814 0.22753315
0.52902192 -0.063548133 0.22431271
0.51896971 -0.078028604 0.21636587
0.51449054 -0.055218719 0.21861348
0.53840423 -0.05725288 0.22419108
0.55171597 -0.0033120092 0.22948112
0.59470117 0.013854396 0.25430897
0.52475649 -0.078695051 0.21491455
0.5423305 -0.026647482 0.2233405
0.54129159 -0.035248466 0.22642894
0.51622266 -0.079432383 0.21503572
0.57336903 0.0071949707 0.2599436
0.52417135 -0.046360686 0.22492038
0.57930338 0.01465307 0.23336916
0.5065909 -0.077530593 0.21416189
0.52991396 -0.072391421 0.21978474
0.53473043 -0.044009127 0.22960469
0.51891428 -0.070477672 0.21919967
0.55398327 -0.053464577 0.21620835
0.54451025 -0.025721118 0.22433986
0.52904385 -0.059404362 0.22602789
0.5596993 -0.0080526778 0.23032768
0.5223918 -0.042110916 0.2243956
0.54282385 -0.022072123 0.23117724
0.57003975 0.0019402006 0.23369847
0.56580198 -0.0093571516 0.23188823
0.51850271 -0.086283728 0.21238984
0.50562054 -0.067062341 0.21324489
0.49958122 -0.075583912 0.21048987
0.60041285 0.021428091 0.23920222
0.54991138 -0.051962715 0.23048538
0.55407965 -0.039972875 0.22563335
0.52960473 -0.085580252 0.20690075
0.57264251 0.0038717692 0.21815516
0.50801563 -0.076382898 0.21577162
0.53323972 -0.041594613 0.22788094
0.57198232 0.0028079166 0.23402593
0.51741415 -0.083621249 0.21411361
0.5541293 -0.03851068 0.22868483
0.54540151 -0.022239476 0.2310814
0.5858596 -0.004660754 0.26653978
0.51116377 -0.074536815 0.21746652
0.59509569 0.035221465 0.19540995
0.5548678 -0.017787412 0.23131713
0.57854635 0.027282409 0.23935729
0.53853756 -0.058666389 0.22833794
0.54886651 -0.023639994 0.22906953
0.57090068 -0.0080699958 0.23052625
0.58927017 0.017322062 0.25306761
0.52488643 -0.088586979 0.21078794
0.54952699 -0.010573396 0.22971813
0.53353393 -0.042235866 0.22215037
0.58123857 0.026390698 0.24149482
0.53709006 -0.040713374 0.22598599
0.55772418 -0.027525309 0.22795098
0.53864318 -0.04697739 0.22951108
0.56716663 0.0012810424 0.23437959
0.57755035 0.019346556 0.23702951
0.57160574 0.013939977 0.2635515
0.5116418 -0.068735421 0.21794242
0.55996543 0.009349945 0.23376778
0.56836629 -0.015976459 0.2280197
0.5481292 -0.060169037 0.21583162
0.53730732 -0.043825421 0.22661291
0.54599935 -0.054906242 0.22366823
0.53827459 -0.026187973 0.22976393
0.56927997 0.0082727056 0.21668258
0.56263632 -0.011608504 0.23191723
0.53846991 -0.052487556 0.22582279
0.51824909 -0.079579107 0.21618931
0.58401573 0.026388738 0.24298099
0.51026386 -0.071910203 0.2175688
0.51799029 -0.076691896 0.21682721
0.51454955 -0.086229928 0.21336123
0.57588333 0.014092867 0.23446748
0.51219219 -0.068139628 0.21867669
0.54640043 -0.034957416 0.22694451
0.51903099 -0.087143488 0.21164358
0.56616551 0.0076338942 0.23446989
0.52723229 -0.053955134 0.22219265
0.56108522 -0.003646282 0.22936292
0.58502764 0.026225872 0.24389562
0.55224973 -0.03920804 0.2268697
0.56703162 0.0056845574 0.21808678
0.5099681 -0.061766148 0.21677402
0.54521745 -0.041788422 0.22701319
0.52623022 -0.071529619 0.22061616
0.56033671 0.0053774198 0.2337427
0.57678831 0.01452563 0.23577155
0.58944416 0.024009736 0.24856435
0.51586872 -0.067769587 0.22091901
0.53887779 -0.021433493 0.22953457
0.59807003 0.02750805 0.23235935
0.51850414 -0.083888203 0.21384896
0.52306408 -0.055123121 0.22462958
0.53568089 -0.062776744 0.22321588
0.52408153 -0.082695015 0.21471702
0.56205541 -0.0099001667 0.2328662
0.5562557 -0.0015212521 0.22620533
0.5855639 0.015976662 0.2555477
0.55074656 -0.013536463 0.22821279
0.52405274 -0.069006667 0.22356401
0.51825756 -0.075603493 0.21777324
0.57792407 -0.014696716 0.22104304
0.5983336 0.023408966 0.24064894
0.53605801 -0.041472767 0.22732799
0.56898147 -0.029567873 0.21823442
0.52393639 -0.067037523 0.22172105
0.52772743 -0.055135693 0.22126485
0.5751366 0.0087688919 0.2601586
0.57777351 0.025647903 0.23909082
0.54421711 -0.04535206 0.22982302
0.53349954 -0.05435757 0.22428682
0.5167321 -0.059256691 0.22089507
0.54689705 -0.041010126 0.2288619
0.522879 -0.049552314 0.22322707
0.52089387 -0.076088808 0.22323972
0.56515163 -0.035144974 0.22018135
0.55283296 -0.024218237 0.22869211
0.55506581 -0.0050898413 0.23131724
0.50261194 -0.075523674 0.21351087
0.58014184 0.022696348 0.23818228
0.59544349 0.015729552 0.2384305
0.59187156 0.024190305 0.24613026
0.52881998 -0.082851678 0.21387129
0.53757769 -0.036498643 0.22298586
0.52430803 -0.071727589 0.22006027
0.51494938 -0.079310134 0.21440183
0.50645953 -0.066962764 0.21376777
0.56634933 -0.014451265 0.23045604
0.58223742 0.018693715 0.23770547
0.57324314 -0.013795834 0.22729558
0.55251396 -0.0022001776 0.22937553
0.55032229 -0.022615651 0.22908093
0.53391391 -0.045267738 0.22591807
0.51790488 -0.074786782 0.21818675
0.59860927 0.023935342 0.23704146
0.54178822 -0.035469338 0.2268675
0.54154396 -0.039691411 0.23102671
0.59406841 0.035449915 0.21989991
0.57580829 0.031863622 0.24126987
0.58185565 0.025741233 0.24430291
0.50699538 -0.069353178 0.21499784
0.50999963 -0.064262137 0.21630293
0.52942699 -0.078358643 0.21635361
0.55526012 -0.038389653 0.22610116
0.51222867 -0.056954537 0.21747461
0.56054819 0.0094987787 0.2341897
0.58615351 0.016796917 0.25347802
0.55287164 -0.023285277 0.23160511
0.59777993 0.028629061 0.23046768
0.55807269 -0.014916312 0.22926563
0.53537124 -0.037213825 0.22819462
0.58878791 0.031787135 0.2347794
0.52066863 -0.077013873 0.21667124
0.51613802 -0.068694159 0.21290396
0.56598002 -0.0092223473 0.23411524
0.59219003 0.035592262 0.22315849
0.53432727 -0.043503772 0.22840838
0.54185003 -0.045937452 0.2292897
0.54297709 -0.056016389 0.22426398
0.5974521 0.02791892 0.23235221
0.54348934 -0.012943959 0.22744173
0.50676668 -0.068324171 0.2142812
0.57128751 0.0022941728 0.23170131
0.56856394 0.02157416 0.233859
0.54136544 -0.056133915 0.22487077
0.58662641 0.023172546 0.24905324
0.50989538 -0.088555574 0.20779955
0.53928566 -0.041386224 0.2280376
0.54045868 -0.037752293 0.23052256
0.60294354 0.032966584 0.18716955
0.51441389 -0.068141185 0.21986562
0.52598524 -0.042034719 0.22637664
0.54466963 -0.019597672 0.22021653
0.54104561 -0.020682642 0.2298965
0.51310343 -0.069158748 0.21841307
0.53246665 -0.056486137 0.22694977
0.53843057 -0.054053444 0.22688399
0.56827068 0.0054020607 0.26913333
0.59091306 0.036705911 0.22169486
0.56947625 -0.0069796117 0.234936
0.55248845 -0.014685567 0.23097751
0.5905984 0.021337291 0.24983919
0.56437236 -0.033690449 0.2213957
0.54943466 -0.031193163 0.2283995
0.59115756 0.014561269 0.25694421
0.59811556 0.021063009 0.24055563
0.52102345 -0.063289374 0.22292547
0.58774209 0.014601205 0.25840628
0.52616191 -0.081266008 0.21595643
0.51408082 -0.075337954 0.21708496
0.55143243 -0.0071381605 0.23056641
0.54659069 -0.037707586 0.22643301
0.51797444 -0.087930247 0.21036454
0.53189838 -0.023610476 0.22689651
0.57971942 -0.011188703 0.22242489
0.53790665 -0.046619415 0.22827318
0.51073498 -0.085643083 0.21175079
0.5599941 -0.018323846 0.22886917
0.58220565 0.024930598 0.24093583
0.51679826 -0.064666227 0.22099976
0.52954292 -0.067902386 0.22002679
0.56001651 -0.0048899855 0.23411652
0.58409625 -0.0095671052 0.26799744
0.54535556 -0.057936095 0.22084861
0.53677076 -0.03883544 0.22910129
0.56641632 -0.00033031125 0.22997609
0.53084201 -0.061401259 0.22360216
0.58876258 0.0081185047 0.26024839
0.51099086 -0.082112655 0.21311602
0.54283184 -0.017707553 0.22898839
0.53131038 -0.047042832 0.22824128
0.56419212 -0.017801685 0.22866462
0.53100121 -0.052193973 0.22833551
0.52172476 -0.073073544 0.21879031
0.5307529 -0.042242885 0.21443142
0.55707389 -9.7499134e-05 0.23336907
0.59288496 0.03440845 0.22873937
0.52563721 -0.082787193 0.21525034
0.53136367 -0.073472045 0.21851601
0.51967657 -0.061905634 0.22322468
0.58251321 0.022780906 0.24852878
0.57171756 0.016460191 0.23448236
0.56395996 -0.036743227 0.21970908
0.53219688 -0.061787255 0.22675474
0.5585376 -0.011740928 0.23233035
0.51724243 -0.083778381 0.21320261
0.58686179 0.020421902 0.25077382
0.57687956 0.0055540702 0.23326221
0.56613398 -0.017964246 0.22774816
0.53319263 -0.038406618 0.22750096
0.52253443 -0.06429065 0.21911663
0.51447684 -0.073317684 0.2187873
0.58505058 0.01697943 0.23659469
0.51050949 -0.083135873 0.21347943
0.55461276 -0.025241027 0.2286063
0.51940697 -0.043377463 0.2232157
0.59594852 0.014923383 0.25306621
0.57283974 0.0039500413 0.23397452
0.57446057 -0.015743336 0.22435197
0.58974177 0.024923855 0.2465577
0.51531672 -0.088538133 0.20986846
0.55116421 -0.034397788 0.22776899
0.52547133 -0.061615691 0.22075473
0.51346612 -0.087881878 0.209803
0.5401268 -0.064789228 0.22136247
0.56125206 0.0049320403 0.23390448
0.53397828 -0.049206793 0.22473514
0.52119631 -0.056396667 0.22404288
0.51360136 -0.082570262 0.21419965
0.54905474 -0.018493073 0.23038913
0.542606 -0.040718593 0.22627559
0.59408593 0.031415351 0.2314802
0.5063135 -0.077041589 0.21437399
0.58523637 0.034903914 0.22914335
0.51839226 -0.080219872 0.21579337
0.56687999 -0.0086683109 0.23185419
0.53640085 -0.071621798 0.21752307
0.56811875 -0.015386184 0.2284836
0.58438838 0.02166192 0.24973947
0.58291221 -0.0074004927 0.26707041
0.59725273 0.035048202 0.21497938
0.52707434 -0.04836189 0.22635241
0.60120952 0.027377382 0.23109974
0.59038347 0.0065311044 0.2585988
0.55691087 -0.020156503 0.22807503
0.51110584 -0.075788349 0.21651232
0.52201194 -0.063843183 0.22304644
0.5671066 0.016127933 0.23312058
0.57278389 0.0063052089 0.21775681
0.51477104 -0.072186776 0.21842593
0.60152203 0.027309353 0.23101079
0.50290269 -0.077576876 0.21215209
0.55296302 -0.053839359 0.21640947
0.53162432 -0.03608793 0.22701803
0.57582527 0.029869908 0.23980835
0.54775661 -0.037204139 0.22927837
0.53472471 -0.052465972 0.22492371
0.51958585 -0.063265868 0.22352591
0.59238189 0.019334922 0.25040042
0.5422473 -0.063780822 0.21983993
0.53393996 -0.052290648 0.2284852
0.52822 -0.075480804 0.21861529
0.53346151 -0.077250473 0.21408616
0.55131626 -0.031619839 0.22815336
0.55449098 -0.04326028 0.2247014
0.60033882 0.029631486 0.22488551
0.59738886 0.025024604 0.23684344
0.55660814 0.0063351914 0.23380509
0.54556346 -0.03036025 0.22760932
0.55153066 -0.032050043 0.23118739
0.58604056 0.018942041 0.25803444
0.53209209 -0.068080403 0.22149479
0.58556646 0.035390306 0.22867973
0.52896309 -0.084819734 0.21012303
0.543814 -0.03060996 0.23217562
0.52819628 -0.052320715 0.22673956
0.54771227 -0.030542513 0.23160723
0.57960898 0.024125088 0.23895073
0.54120666 -0.03780631 0.23088335
0.53423476 -0.052912295 0.22764617
0.53269207 -0.075451277 0.21675079
0.5725385 0.02731779 0.23616526
0.572846 0.013954801 0.23459195
0.57934284 0.0099939704 0.23051353
0.53104138 -0.073495544 0.21863736
0.58996606 0.020103846 0.25708994
0.57923114 0.027727321 0.24140546
0.50675237 -0.081307702 0.21281539
0.55724454 -0.012150725 0.22772536
0.49985975 -0.076074921 0.21027689
0.57666755 0.0085915308 0.25940606
0.55286908 -0.043378554 0.22531207
0.57463956 0.015610974 0.26329264
0.54296601 -0.036232803 0.23163329
0.56953871 0.0048531499 0.21883611
0.5302282 -0.058091067 0.22627783
0.57821202 0.015675362 0.25809491
0.59869504 0.027371993 0.23218146
0.52829814 -0.079627298 0.21605574
0.53641653 -0.062201053 0.22776693
0.51904857 -0.044187654 0.22242607
0.52825296 -0.06840679 0.2216676
0.54119939 -0.064450413 0.21987301
0.53104275 -0.071122766 0.22008263
0.5312801 -0.058768142 0.22642225
0.54803365 -0.03612335 0.23036908
0.51098943 -0.084538504 0.21163844
0.58194476 -0.0088260705 0.26842925
0.53439242 -0.075099863 0.21500479
0.5292381 -0.053331554 0.22790512
0.51208568 -0.08105389 0.21450627
0.53746694 -0.037536237 0.22907938
0.54982829 -0.02664054 0.22776338
0.5744561 0.017715681 0.23552224
0.55028737 -0.056119099 0.21739098
0.54086214 -0.036317997 0.22655284
0.53399563 -0.039807037 0.22825123
0.55191123 -0.043074746 0.23011079
0.51800591 -0.061216485 0.22148499
0.5569703 -0.035270661 0.22728182
0.50817788 -0.080943607 0.21384755
0.56441307 0.0014245786 0.23436365
0.54353106 -0.029133657 0.22574583
0.50890553 -0.076603487 0.21608558
0.58441412 0.0098861987 0.23204628
0.58035064 -0.0016254162 0.22798659
0.51497358 -0.054164879 0.21829639
0.51113594 -0.059176732 0.21795645
0.5333367 -0.075404264 0.21650808
0.52157331 -0.053762082 0.22348185
0.52918279 -0.082528643 0.21391541
0.55225962 -0.04551236 0.22426838
0.54705876 -0.023908185 0.22459404
0.50768483 -0.064738199 0.21471183
0.57506192 -0.012446536 0.22735216
0.53915888 -0.054106042 0.22723533
0.55668956 -0.03103945 0.22873393
0.538486 -0.039129734 0.229803
0.53127784 -0.079194911 0.21382053
0.53881049 -0.038510863 0.2267298
0.53628588 -0.054291762 0.22895394
0.53137892 -0.046548057 0.22864297
0.59718782 0.030383237 0.22828621
0.59846407 0.033121619 0.1991774
0.53531379 -0.050921127 0.2243727
0.51036584 -0.087651603 0.20871836
0.50269037 -0.072151273 0.21333417
0.51154393 -0.073188968 0.21458769
0.57549804 0.00030528859 0.22996135
0.54457843 -0.038156591 0.22700647
0.50955361 -0.088530891 0.2076347
0.55635184 -0.049388867 0.21893923
0.57283717 0.006084132 0.27072936
0.55163836 -0.041348621 0.2258227
0.58864778 0.01691949 0.25360104
0.51656175 -0.085285239 0.21378276
0.56362587 -0.020966126 0.22821909
0.5144282 -0.079324543 0.21568358
0.51083517 -0.063357629 0.21741767
0.50609767 -0.069923893 0.21409599
0.55182809 -0.0060139424 0.23025444
0.55157524 -0.054541301 0.21656591
0.5283733 -0.069885671 0.22071578
0.57163471 -0.008742312 0.23105201
0.5301972 -0.070294671 0.22094317
0.54034883 -0.025098477 0.23032548
0.52454603 -0.057289496 0.22517858
0.54600507 -0.063280322 0.2160743
0.53564602 -0.081535198 0.20682253
0.56810582 0.0087794149 0.2336479
0.58844107 0.02073081 0.25116581
0.56593114 -0.02322376 0.22587299
0.58276916 0.014036494 0.23590812
0.58088517 0.019602206 0.25133184
0.51527786 -0.078418896 0.21545355
0.55985111 -0.011067385 0.2321776
0.55253208 -0.058735523 0.21111861
0.58624434 0.032016836 0.23444419
0.53370941 -0.08059337 0.21070039
0.56701499 0.0044496795 0.23392934
0.57395595 0.02552638 0.23695628
0.52296698 -0.076899543 0.21747325
0.58072537 -0.0080152526 0.26841515
0.58569515 -0.00041151315 0.26380822
0.50891888 -0.078167684 0.21493891
0.52018327 -0.060082138 0.22348802
0.59115255 0.032789767 0.19234236
0.54426914 -0.051176809 0.22666909
0.53940499 -0.063068032 0.22271515
0.53597111 -0.0374282 0.22835779
0.57507396 0.014649437 0.23494457
0.59668165 0.016011268 0.23683654
0.55594409 -0.011952991 0.23213786
0.58340645 0.019437945 0.25163326
0.57674253 -0.017465392 0.2186089
0.51574951 -0.060320366 0.21958417
0.51581627 -0.059838913 0.21997504
0.54968989 -0.035710592 0.22758965
0.52428108 -0.066258378 0.22248042
0.53614151 -0.050223492 0.22848293
0.59689486 0.031281628 0.22781692
0.56262231 -0.017307831 0.22962636
0.53852147 -0.038227778 0.22702397
0.54720396 -0.03879058 0.22929215
0.51057714 -0.085175 0.21142413
0.52939886 -0.088350728 0.20156603
0.6010651 0.032222904 0.21776314
0.50731105 -0.073159836 0.2164185
0.52605098 -0.05039857 0.22565506
0.51177263 -0.067791559 0.21870871
0.50693268 -0.077555276 0.21432674
0.54411167 -0.04459234 0.2270145
0.52499175 -0.061398093 0.22509304
0.58975357 0.034016624 0.23161523
0.54269379 -0.058113147 0.22310556
0.5723331 0.0076180026 0.23201647
0.52818698 -0.042193726 0.22743876
0.50957376 -0.080488592 0.21345778
0.52944809 -0.04556042 0.22228269
0.50223505 -0.073107176 0.21373835
0.5203231 -0.059930783 0.22367455
0.51435024 -0.078220159 0.21645643
0.5576002 -0.017420085 0.23169857
0.51163363 -0.074940138 0.21472725
0.56061566 -0.018583633 0.22844923
0.55698311 0.0014673896 0.2331216
0.52983403 -0.048900653 0.22542177
0.52549952 -0.076938488 0.21762785
0.55090082 -0.0032531382 0.22908789
0.5551616 -0.019456025 0.23159684
0.57055002 0.021233398 0.2346715
0.55095929 -0.050382867 0.22184791
0.51838624 -0.043638177 0.22247663
0.54121393 -0.038662132 0.23025598
0.56453592 -0.034887608 0.22059737
0.53234893 -0.057726655 0.22396258
0.51861084 -0.067584269 0.22117136
0.56252849 -0.0084531019 0.23418702
0.57204807 0.0012223995 0.23424478
0.55586714 -0.04733865 0.22163695
0.49801475 -0.076883465 0.20869219
0.55395991 -0.036089048 0.22805037
0.57326156 0.0070641148 0.23128812
0.52143502 -0.050277703 0.22191851
0.50928187 -0.085072368 0.21078755
0.51170909 -0.069908455 0.21846634
0.6035977 0.023673063 0.23507623
0.5712381 0.0046423124 0.23362723
0.51267576 -0.072084382 0.21873225
0.50685626 -0.085518651 0.20976493
0.51715332 -0.060509108 0.22155006
0.50216144 -0.078773938 0.21087208
0.52968472 -0.044298843 0.22007205
0.53103429 -0.080997869 0.21282442
0.5807634 -0.009377595 0.22433341
0.53530264 -0.034992568 0.22844319
0.55463541 -0.023044685 0.2313742
0.52067846 -0.072997987 0.21828561
0.56957656 0.0032373155 0.23175184
0.54843098 -0.058675475 0.21537033
0.52585125 -0.062913209 0.22443584
0.5365271 -0.076884776 0.21052976
0.53480023 -0.047937769 0.22516242
0.51663494 -0.05455352 0.22025278
0.59589303 0.012398456 0.2560358
0.58880931 0.032608829 0.23422609
0.58132035 0.026980614 0.24197376
0.53803718 -0.02705518 0.23035023
0.58724421 0.018086577 0.23723321
0.52698731 -0.066159554 0.22232531
0.55350572 -0.03307388 0.22883449
0.54423481 -0.042301476 0.22918965
0.52789277 -0.078608677 0.22318113
0.58127147 0.020819129 0.258697
0.54872137 -0.036693878 0.23031658
0.6036014 0.031604059 0.18778975
0.55632573 -0.022438716 0.23137344
0.60290408 0.031451017 0.18819009
0.5476312 -0.055998206 0.21982715
0.55144793 -0.046765469 0.22384647
0.55123663 -0.023161096 0.22836366
0.5072611 -0.076015756 0.21563827
0.5429675 -0.063763358 0.21830301
0.57187521 0.025279434 0.23565957
0.57708919 -0.01598563 0.22060907
0.52983272 -0.048727032 0.22756062
0.57865071 -0.0090304026 0.22667868
0.5160203 -0.085871428 0.21306032
0.55977917 -0.0086248554 0.23258762
0.56920815 -0.0047111497 0.23204106
0.57746172 -0.0067965593 0.22978479
0.59273434 0.025288448 0.2399382
0.56648135 0.011669771 0.23355663
0.51693112 -0.049288698 0.22023548
0.58800459 0.0157144 0.25467488
0.51082736 -0.077680215 0.21632078
0.5544669 -0.017734909 0.22751936
0.50709933 -0.08211118 0.21240859
0.50704807 -0.075062431 0.21622735
0.5408147 -0.054099843 0.22943245
0.56420541 -0.0023233681 0.23097016
0.51291186 -0.08564461 0.21291575
0.56852186 -0.004997422 0.23453379
0.54517621 -0.028458972 0.22586736
0.5177303 -0.064266659 0.21493159
0.54103321 -0.052017819 0.22707337
0.51086736 -0.082372814 0.21288079
0.59176606 0.021290686 0.2545667
0.54305488 -0.030555131 0.23180942
0.53784287 -0.0528346 0.22463088
0.51406068 -0.072972417 0.21881907
0.54004848 -0.034728892 0.22726882
0.55785012 -0.018087907 0.22867107
0.53633988 -0.081184223 0.20674433
0.53990626 -0.03815088 0.22690271
0.52343482 -0.082742177 0.2149605
0.54087931 -0.031567901 0.22760086
0.56188595 -0.0037610489 0.23036927
0.55332398 -0.0013232948 0.23045622
0.55412447 -0.045973331 0.22320248
0.51925623 -0.069704734 0.21995299
0.53341752 -0.0549643 0.22395161
0.514893 -0.073662944 0.21875554
0.54088128 -0.05735556 0.22433019
0.60021299 0.034698434 0.1884672
0.56536347 -0.0013057635 0.23107347
0.53357857 -0.052264549 0.22831088
0.54525131 -0.043311521 0.22731523
0.53425449 -0.035260271 0.22768429
0.54199302 -0.036757953 0.22645825
0.57428581 0.017531294 0.235295
0.54358155 -0.027194461 0.22444004
0.582748 0.015491616 0.2573179
0.52790594 -0.065574706 0.22222006
0.50999016 -0.086056344 0.21104699
0.54779983 -0.040902983 0.22942451
0.53672558 -0.050432246 0.22864182
0.52437818 -0.090228237 0.20875734
0.55578583 -0.0038412807 0.2326239
0.58886206 0.022353202 0.24124704
0.49934974 -0.077476621 0.21032292
0.53256541 -0.051267926 0.22599933
0.56642658 0.0064656772 0.23374802
0.59818906 0.033138957 0.2196634
0.51006299 -0.074143395 0.21716709
0.52657628 -0.046700936 0.2259576
0.58656794 0.021555012 0.25816026
0.52370435 -0.058499131 0.21966442
0.54725808 -0.04103886 0.22661094
0.51909703 -0.063390732 0.22317196
0.57840687 0.021543927 0.23775601
0.56862903 -0.0032700105 0.23451225
0.57395911 0.0092610354 0.26095417
0.56975853 0.015545608 0.23411156
0.59829175 0.023729935 0.23731364
0.59714854 0.036196329 0.19006301
0.52077848 -0.067809045 0.21646747
0.56358308 -0.023698207 0.22657232
0.58722854 0.027382949 0.2421857
0.55186212 -0.019876996 0.22623359
0.52013403 -0.078978501 0.21615459
0.58220166 0.0092681376 0.23135661
0.54768521 -0.033328343 0.23089096
0.53364623 -0.031262945 0.22760069
0.5278185 -0.063623309 0.22361262
0.53599066 -0.040929206 0.22405286
0.57186812 0.0066516991 0.2316234
0.54627097 -0.040626597 0.2296343
0.55016452 -0.015695252 0.22419228
0.57240188 -0.00053640449 0.23075178
0.51881462 -0.066960879 0.22174038
0.535272 -0.072890453 0.21722519
0.54155868 -0.06101805 0.22859985
0.54537749 -0.020724097 0.22065894
0.58151251 0.01445207 0.25596017
0.59073389 0.014966397 0.2324816
0.50237858 -0.078967959 0.21219842
0.54036123 -0.050626446 0.22773974
0.57972455 0.017542427 0.25859591
0.59028721 0.021136004 0.25010589
0.56832337 -0.01871708 0.22636777
0.55942374 -0.014426669 0.22957183
0.50993377 -0.075075842 0.21641006
0.5567618 -0.043969274 0.2220691
0.5465228 -0.020681806 0.23012471
0.54937577 -0.048782341 0.22988267
0.54136932 -0.049067233 0.22807671
0.53270829 -0.059474282 0.22399077
0.52849841 -0.049418271 0.22768913
0.53156585 -0.045742184 0.22661738
0.53863937 -0.069732107 0.21648788
0.55348474 -0.016302655 0.22786337
0.57306403 0.015496079 0.26388586
0.53217298 -0.067481324 0.22182578
0.51144743 -0.073414117 0.21709345
0.53545958 -0.051811632 0.22501311
