# .PCD v0.7 - Point Cloud Data file format
VERSION 0.7
FIELDS x y z
SIZE 4 4 4
TYPE F F F
COUNT 1 1 1
WIDTH 1392
HEIGHT 1
VIEWPOINT 0 0 0 1 0 0 0
POINTS 1392
DATA ascii
0.61023694 -0.04016 0.23362301
0.60085934 0.03121879 0.24186298
0.58952832 0.031919006 0.19743134
0.54693609 -0.014902578 0.24769565
0.54864246 -0.031068066 0.19673923
0.54852158 0.0076175109 0.2501623
0.56857389 0.027885988 0.20863992
0.59173977 -0.047163192 0.21690586
0.58644742 -0.051697664 0.25148073
0.54034966 -0.020374618 0.22854942
0.56385452 -0.041360486 0.24924751
0.57705456 -0.049428612 0.23617916
0.5772301 0.033579659 0.2461202
0.58108491 -0.0477322 0.2133093
0.56116825 0.025279686 0.21639541
0.60959977 0.015406146 0.21091948
0.57135755 0.031527933 0.2407953
0.61369956 0.010408068 0.24599196
0.54661536 -0.0099472944 0.24587132
0.60571647 0.021422161 0.22004433
0.5792467 0.033044286 0.23466101
0.59846222 0.030961612 0.20165101
0.55416131 0.018734913 0.22158405
0.53827447 -0.016314976 0.22230695
0.57581228 -0.048578843 0.23232861
0.5849486 -0.049193755 0.24409753
0.58234543 0.03714921 0.2475331
0.54655182 -0.029363208 0.22930856
0.55890882 0.022572581 0.22814284
0.55217981 -0.019010162 0.24671732
0.544276 -0.026365282 0.20186384
0.61870742 -0.0091002714 0.25459298
0.5464499 -0.018598532 0.24038184
0.6178385 0.0067268335 0.25497648
0.54907238 0.017262915 0.25020909
0.59133899 0.032311149 0.20681776
0.61645615 -0.011286728 0.22062653
0.56657553 -0.047927208 0.25369969
0.54869467 -0.027600316 0.21607727
0.61106193 0.023938363 0.24059564
0.61695635 0.0088083055 0.25468495
0.56415874 -0.045125648 0.20192763
0.56488794 -0.045533422 0.20697989
0.60862303 0.023148362 0.20007674
0.61961603 -0.052597478 0.20807931
0.5457564 -0.019768901 0.24896213
0.57407349 -0.049294505 0.24883603
0.54404569 -0.0098328516 0.24702393
0.61551017 0.0048666093 0.24964447
0.54423827 -0.025060978 0.20957658
0.61442679 -0.021494556 0.25397703
0.56387293 -0.042973783 0.20013198
0.61562002 -0.047801964 0.23790744
0.54321367 -0.024078196 0.20839751
0.5405736 -0.021586811 0.22235878
0.5878759 -0.049881075 0.24966446
0.53468949 -0.011052307 0.25134668
0.61687917 -0.044754237 0.19885802
0.54289526 0.0010524525 0.25055596
0.58170241 0.035504535 0.23514126
0.60142279 0.026765916 0.23386864
0.58102614 -0.049026046 0.23420651
0.54523379 -0.030944331 0.25045222
0.54526418 0.022552591 0.25068963
0.57107192 0.034811355 0.22350267
0.60192919 0.025817353 0.23885667
0.60219806 0.028018106 0.22192764
0.54637164 0.029037334 0.25200909
0.60650766 0.029476281 0.24339904
0.61227942 0.019239269 0.24903965
0.53962302 0.013290884 0.25165504
0.54610878 -0.028776629 0.25236192
0.54978532 -0.03217902 0.24966092
0.56837493 -0.045686234 0.22978701
0.61792254 -0.045474757 0.23950815
0.56612587 -0.045351371 0.25374922
0.61706036 0.0083416412 0.25575042
0.54543656 -0.021663375 0.24918744
0.60258526 -0.050305042 0.25381732
0.58168036 -0.048746638 0.24852842
0.60352319 0.03136998 0.24581015
0.58380437 0.032248449 0.21856712
0.574251 -0.049000356 0.23837395
0.59205914 -0.050222341 0.25191501
0.59651256 0.03288769 0.23724483
0.62037265 -0.010170738 0.25469738
0.54647833 0.0046727229 0.25044173
0.55438679 0.016669188 0.20405351
0.59071094 0.031007454 0.22236717
0.54699665 -0.031139012 0.20386383
0.59973586 -0.045472391 0.24165098
0.58499759 0.037876382 0.25220272
0.55796349 -0.039750732 0.20475264
0.550933 0.01190138 0.238693
0.56659448 0.030026464 0.24313243
0.56479877 0.026455522 0.23549217
0.6144892 0.0021491179 0.22271723
0.56892741 -0.045448296 0.22047491
0.55239207 0.014168795 0.21083771
0.61715227 -0.0069850651 0.20386498
0.58085996 0.033135597 0.24150324
0.61385936 -0.047855433 0.23692213
0.60557431 0.025215911 0.19390993
0.60715908 0.02711232 0.24168471
0.54629552 0.010227646 0.24958318
0.55596107 0.019164318 0.20117658
0.5807358 0.032158267 0.22976062
0.53703374 0.0039028302 0.25281268
0.61497426 -0.0050636926 0.22306988
0.5812211 0.032769278 0.23615028
0.60571921 0.022666022 0.22908822
0.59661263 -0.046008218 0.24334742
0.54961801 0.011170294 0.2412907
0.58972776 0.032536734 0.20070256
0.60556144 0.023836859 0.24070011
0.59984332 0.030330976 0.23428398
0.54943413 -0.030600306 0.19991115
0.55318791 0.015789751 0.21273401
0.61960536 -0.05011465 0.20313603
0.59452182 -0.047326725 0.24766624
0.61110467 0.012636221 0.22457789
0.60704303 0.024384921 0.19527368
0.56103051 0.02426604 0.21583606
0.55393094 -0.035477664 0.23417549
0.55437833 0.036564287 0.25238794
0.61448121 -0.010538518 0.23636645
0.54915088 -0.034013022 0.25197381
0.56222159 -0.040812377 0.20625645
0.59931076 0.031018805 0.2507678
0.60524446 0.026090557 0.22320309
0.58746195 0.033702094 0.24031049
0.5925135 -0.046840016 0.2189073
0.59096545 0.032809835 0.20563118
0.61425984 -0.047884937 0.23711549
0.57154566 -0.04784862 0.23495199
0.55069888 -0.032644346 0.23182255
0.60597634 -0.048466045 0.252417
0.54718393 -0.029070476 0.23392634
0.5959354 0.036050446 0.24688083
0.59988976 0.02748262 0.23763625
0.54387605 -0.028231451 0.2002715
0.55973148 0.022421684 0.19908281
0.5529989 0.016533388 0.21575539
0.60570991 0.02742674 0.24942389
0.54913384 -0.026474021 0.22915581
0.54983175 -0.029079407 0.24714138
0.54929936 -0.027586883 0.24128644
0.59293538 -0.047088403 0.22525997
0.54708135 -0.030800736 0.19874281
0.54592144 -0.010297964 0.24595018
0.53521222 -0.011767088 0.25109988
0.59795856 0.031833582 0.24928878
0.5778805 0.032170605 0.24804746
0.57462138 0.030822888 0.24779196
0.59573424 0.029394671 0.20431806
0.59586012 -0.049155124 0.25212342
0.57568687 -0.04580361 0.25035784
0.6199941 -0.052554682 0.21508425
0.59720612 -0.049747486 0.25193736
0.56834805 -0.046779625 0.25217852
0.54278708 0.0081866663 0.25097507
0.61497653 -0.0046403906 0.22473763
0.54162192 -0.023306187 0.22571495
0.56931251 0.030324563 0.23967975
0.58946729 0.033038758 0.23657256
0.61384261 0.0066560525 0.24194524
0.53981209 -0.021624971 0.20567295
0.61576247 -0.011323487 0.2500158
0.59782821 0.032920912 0.24044384
0.56195438 -0.043167859 0.20794797
0.55229032 0.018673686 0.23726815
0.54893517 -0.030336542 0.24865256
0.60779411 0.027496409 0.24848242
0.59948826 -0.046570219 0.21828021
0.61900651 -0.046803307 0.20390449
0.61704737 -0.043548554 0.19983836
0.58902216 -0.042781759 0.25711364
0.58433521 -0.051731575 0.25113666
0.57738626 -0.049478468 0.21131553
0.55942881 0.025531495 0.24465881
0.56112069 0.024367575 0.20217139
0.60852849 0.01851589 0.22617996
0.60771298 -0.04270941 0.24012688
0.5574621 -0.039452992 0.20605712
0.55281311 0.020592518 0.24692741
0.60652697 -0.043531433 0.23888294
0.54842359 0.010329933 0.24968264
0.54999161 0.020928565 0.25080994
0.59120953 0.031149503 0.21228832
0.54880947 -0.035607975 0.25434688
0.55252069 0.023377677 0.24874701
0.58729351 0.035854682 0.2466702
0.54590189 -0.033697043 0.25148734
0.58509386 0.03779047 0.24753182
0.56668681 -0.042182442 0.20899798
0.55364877 -0.035727754 0.21352857
0.61234218 0.010115838 0.20171748
0.56785023 0.029585615 0.23984592
0.57489622 0.03539107 0.23140118
0.61056983 -0.039708793 0.24464634
0.5471459 -0.020799018 0.2389918
0.56530374 -0.044640966 0.25247791
0.57813936 -0.044787038 0.25520328
0.58521706 -0.047542885 0.21104202
0.59543389 0.033910222 0.25081939
0.56742972 0.026956089 0.24961959
0.59924608 0.029182384 0.21890318
0.53922844 -0.019157084 0.22478369
0.55019706 -0.03410079 0.21016712
0.59502459 0.030683368 0.22657399
0.61431926 0.0047251717 0.19338432
0.58474511 -0.047264844 0.20723903
0.55438954 0.017763274 0.21467404
0.55437934 0.019146942 0.2267208
0.59992349 -0.048638444 0.19908017
0.59638631 0.029837562 0.21311958
0.55787241 -0.042826694 0.25278798
0.56104064 0.023580991 0.23781395
0.54518062 -0.025961643 0.23514494
0.61854821 -0.044947442 0.20096606
0.55909389 -0.041733466 0.25535023
0.59898829 0.030381832 0.23218644
0.55026507 -0.032914296 0.21378757
0.61488825 -0.013699586 0.24373014
0.60218364 0.02800248 0.24737655
0.60828519 -0.040859804 0.22718742
0.55392158 -0.035642169 0.25078619
0.54854977 0.0087639224 0.21787582
0.6151455 0.0048573664 0.23725531
0.61785424 -0.046717674 0.19928657
0.56838387 -0.045088373 0.2115529
0.58787125 0.031124705 0.20123588
0.54423559 -0.0027673314 0.24751404
0.53873086 -0.01290872 0.23183668
0.60739225 0.021585098 0.23731342
0.5669015 0.030628346 0.24741544
0.54830027 -0.034106482 0.25518164
0.61350882 0.0060348278 0.1979778
0.56621408 0.027986828 0.21591786
0.56917483 0.028003827 0.20472519
0.55452967 -0.033145733 0.22488509
0.57362175 0.031230865 0.24667743
0.60543686 0.023919521 0.23934014
0.57479495 -0.045099612 0.22281906
0.61093825 0.013575874 0.21028753
0.53712201 -0.013941365 0.25322896
0.56129879 0.02409767 0.20815398
0.58820373 -0.049525175 0.24801414
0.55244732 -0.03563926 0.21294849
0.55866766 -0.039963447 0.22634695
0.61664081 -0.045931749 0.23848225
0.57234931 -0.045003191 0.25464138
0.5904265 0.031961337 0.23302332
0.56930053 0.031379044 0.24157147
0.61929041 -0.050674997 0.20661534
0.61890912 -0.013141721 0.25442624
0.57050765 0.030277997 0.24864601
0.54262412 -0.022230892 0.23381728
0.57896227 0.03753189 0.23787381
0.56274134 -0.042714413 0.22259641
0.5408287 -0.022739571 0.22841518
0.5457896 -0.02659196 0.23906894
0.57056659 -0.045649596 0.22245179
0.59752172 -0.050714228 0.25244176
0.5373289 -0.018303402 0.25282842
0.54604405 -0.026871234 0.20921043
0.55028135 0.02239153 0.2503345
0.58410251 0.035840545 0.23532459
0.59250647 -0.046599451 0.21747719
0.60146391 0.035998102 0.24825239
0.56214929 0.039125234 0.25168267
0.5597921 0.029108599 0.24792884
0.58595908 0.032191705 0.22135776
0.59413052 0.031163013 0.23455089
0.61240959 -0.042449672 0.19544993
0.53910464 -0.017237512 0.21665576
0.53856617 -0.016682442 0.22083835
0.62032741 -0.051472921 0.21335368
0.59916794 0.030282091 0.23453882
0.55479276 -0.035224181 0.24780414
0.58928233 -0.047291815 0.2040339
0.6186437 -0.048858907 0.19948415
0.5938803 0.031618372 0.21037972
0.59090817 0.034363799 0.24736893
0.60121953 0.02629691 0.23476727
0.61820304 -0.043836683 0.20024648
0.60439849 0.024126811 0.24028939
0.55173224 -0.031472605 0.24663535
0.54423112 -0.026179962 0.22364132
0.58773875 -0.046770222 0.22091226
0.55576015 -0.041014604 0.24922803
0.60835904 -0.042537689 0.22613437
0.54496247 -0.02944885 0.19995649
0.56992978 0.032155816 0.24302381
0.61961496 -0.0085984292 0.25545093
0.55599922 -0.038877521 0.25225219
0.55929196 -0.040966455 0.2025388
0.56071156 -0.042671677 0.19668838
0.598481 0.031876296 0.23704368
0.55458766 -0.037620679 0.20857358
0.54031205 -0.010365565 0.25076169
0.58448803 0.03378614 0.20016401
0.54830652 -0.034920268 0.25458431
0.61047268 -0.023795364 0.2528626
0.61328721 -0.012238299 0.23176223
0.61593783 -0.0031744677 0.20873345
0.54673171 -0.033179689 0.25246137
0.60702056 0.019262886 0.20019433
0.54526556 -0.02838677 0.22798423
0.60024512 0.029359056 0.19743475
0.54223299 0.0011966282 0.25074503
0.53994471 -0.021933764 0.21093242
0.57934725 0.031800877 0.22763927
0.59233552 -0.046117723 0.2337923
0.61192417 0.019866787 0.24931201
0.60975307 0.027559847 0.24584179
0.545268 -0.029201437 0.19759515
0.604137 0.024291752 0.23756258
0.54906732 -0.027681444 0.21597089
0.6114369 0.017299518 0.24309309
0.54271948 -0.025000056 0.22640826
0.60320681 0.026539586 0.2181132
0.54752362 -0.031099338 0.21230052
0.57270521 -0.046290483 0.25131783
0.59446657 0.034382369 0.25064826
0.54725975 -0.023977093 0.24825431
0.5596329 -0.040729433 0.23471613
0.54471588 0.0021303627 0.24780583
0.60788149 0.018452713 0.19464262
0.60277885 0.025241788 0.21316133
0.549766 -0.026022222 0.23750238
0.61988795 -0.050591543 0.21241416
0.54646558 -0.017984893 0.23996887
0.57862443 -0.053923868 0.25249347
0.60926265 0.015583494 0.20139095
0.60009974 0.033643547 0.25448316
0.58153266 -0.049833987 0.2479284
0.58785433 -0.051811382 0.25222552
0.6217913 -0.055830814 0.21904767
0.53596693 -0.013518834 0.24750417
0.55502301 -0.037477404 0.21297535
0.55373251 -0.031996489 0.23465782
0.57631558 -0.046056248 0.22007319
0.61166304 -0.04329785 0.2391064
0.5789066 0.032543793 0.22952189
0.55602485 -0.036037721 0.21593027
0.54281294 -0.01990678 0.2396964
0.61771899 0.0015729492 0.25381607
0.59725547 0.028315423 0.22871153
0.58606482 -0.042563923 0.25568572
0.60356176 -0.044481657 0.23935154
0.57345057 0.031952254 0.23270524
0.54490751 -0.00074974855 0.24721533
0.58425099 -0.049041893 0.24429667
0.56692362 -0.044117264 0.23956291
0.55886424 0.02270727 0.20335549
0.55286443 -0.034878444 0.23404485
0.57125181 0.035005599 0.22374268
0.60740286 0.022328511 0.24328406
0.60529441 0.025905123 0.22431348
0.58635229 -0.047144119 0.22557707
0.59064716 -0.048837684 0.24650934
0.60529745 0.022725265 0.20317845
0.54925752 -0.038406286 0.25252199
0.61429459 0.0079244189 0.24583238
0.57059187 0.030060617 0.22902459
0.54852223 -0.013178974 0.24683262
0.60199219 0.026583567 0.23268585
0.56624216 -0.044637736 0.25131488
0.59453219 -0.0054424917 0.15873514
0.54740953 -0.033940632 0.25267395
0.59725076 -0.048505165 0.20650955
0.60633153 0.02689979 0.23941518
0.61897796 -0.047831904 0.21125421
0.53343862 0.0060413191 0.25110584
0.57925934 0.037613146 0.24863812
0.56002063 -0.038966496 0.21873625
0.59725493 -0.04785341 0.24938858
0.54370505 -0.025487894 0.21439122
0.61420918 0.0086124651 0.24900243
0.62110013 -0.050980311 0.22496484
0.54985297 -0.026900852 0.24786952
0.54949856 -0.028160799 0.22374633
0.61423939 0.0032996268 0.2017675
0.61453474 0.0017974126 0.20217133
0.59612447 0.02995432 0.20900294
0.58293271 0.032113429 0.22382984
0.59813148 0.028541438 0.22257872
0.59142101 -0.0024647473 0.16061552
0.58777899 0.031866334 0.23159236
0.54270464 -0.0058834534 0.24875009
0.56740457 -0.045108046 0.21453442
0.55294383 -0.035591491 0.23220715
0.6149264 0.00065468269 0.22049494
0.54452598 -0.023299228 0.24981922
0.58861101 0.035940636 0.24729882
0.61253113 -0.039231896 0.19518229
0.5820803 -0.044421714 0.25623602
0.61570847 -0.0073720361 0.22176042
0.56499869 0.027087444 0.20841578
0.57002515 0.039415564 0.25206581
0.56634182 0.026953682 0.19656859
0.54773772 0.0089188777 0.21955685
0.55819684 -0.039613675 0.22504376
0.53789485 -0.017148402 0.21607162
0.61439508 -0.014692043 0.25085694
0.61544287 -0.0079016145 0.19820799
0.55302387 0.015657064 0.21396673
0.61763912 -0.014013099 0.25445485
0.61558074 -0.0010520209 0.24666765
0.59376419 -0.0054980819 0.15902495
0.54384089 -0.025362618 0.23622142
0.60017824 0.029494928 0.1963013
0.55284762 -0.039418206 0.25396401
0.62247229 -0.051570177 0.22391249
0.60471517 -0.032593168 0.25410792
0.57236505 0.030417247 0.24775591
0.59617484 0.032863248 0.23737225
0.59709734 0.030105941 0.22317797
0.53764033 -0.020230776 0.25292709
0.55709344 -0.038913827 0.22927587
0.60305995 -0.046344604 0.24844377
0.56770378 -0.046970639 0.19653055
0.54863262 -0.026699167 0.24850665
0.57069868 -0.046910107 0.25054163
0.55878663 -0.038072124 0.2509892
0.59704155 0.033868812 0.25300655
0.61998421 -0.050923992 0.20680428
0.60817814 0.018206079 0.19461991
0.53531873 -0.01186762 0.25243694
0.57760775 -0.05278245 0.25217459
0.54797161 -0.016133161 0.24775422
0.56730562 -0.043913826 0.217608
0.59775394 -0.042240459 0.2327195
0.55264008 -0.036797896 0.20678057
0.61377954 0.0032321138 0.22042732
0.57445204 -0.048931103 0.24206337
0.59984446 -0.042427979 0.23449339
0.54674804 0.0050448184 0.24374695
0.6101988 0.028484903 0.24621736
0.53752613 0.012947915 0.25162944
0.59994537 0.028858485 0.24274385
0.59666687 0.030165339 0.2255664
0.58996844 -0.047390241 0.22291265
0.5380547 -0.016975742 0.21628496
0.60635889 0.025182119 0.24889174
0.60725462 -0.041439097 0.22602446
0.6038273 -0.046029396 0.24280988
0.60098857 0.029291626 0.25039423
0.60897189 -0.041031282 0.22964773
0.5965786 -0.047472384 0.2468791
0.56816953 0.037057362 0.25068232
0.56740421 -0.045115959 0.22600484
0.5662052 -0.044569276 0.22997966
0.61937171 -0.054348949 0.2066552
0.54796332 0.010579575 0.22047326
0.61433387 0.003032505 0.20026702
0.56309003 0.037702102 0.25113755
0.54256517 -0.025166724 0.22620232
0.57926738 -0.049459618 0.24911103
0.54925126 -0.0375925 0.25311932
0.56579804 0.028321641 0.24814263
0.6100679 -0.04306002 0.24962826
0.60944247 0.023598397 0.25162873
0.56485635 -0.043904562 0.22120185
0.54009241 -0.017718282 0.23172607
0.59556347 0.029376002 0.2218174
0.56703627 -0.044694539 0.2144189
0.60629833 0.02594592 0.21769324
0.56183308 -0.039517965 0.20971133
0.54608792 -0.029857548 0.20161346
0.54850262 -0.032491405 0.20096649
0.56654406 -0.046655275 0.20318943
0.56896424 -0.045039888 0.22655819
0.56135142 -0.038920343 0.23968281
0.55209774 0.017194085 0.2401814
0.60213828 0.026164142 0.22162238
0.54220247 -0.024287766 0.23071848
0.54587722 -0.029895356 0.20011832
0.55301911 -0.029452274 0.21799332
0.54774666 -0.03269539 0.20311792
0.55760103 0.021166176 0.22534855
0.57683873 -0.047436316 0.21403453
0.61413091 -0.0081510749 0.23117033
0.53848654 -0.012874918 0.22496013
0.61076343 0.015772011 0.2280633
0.60818994 0.019420149 0.23208177
0.59231097 0.035815734 0.25190234
0.56075239 0.027823264 0.24549688
0.60474002 0.021588236 0.19391538
0.54823673 0.0090710875 0.21819483
0.57391757 0.031538207 0.23101187
0.58261144 -0.048341714 0.23689416
0.59242314 -0.048260707 0.24791223
0.56611776 -0.042326886 0.20858566
0.5364365 -0.013634241 0.25173336
0.57330024 -0.045749396 0.22389132
0.56882191 0.028438032 0.21011603
0.57621652 0.031341989 0.22370145
0.60088241 0.031704843 0.2521185
0.61999184 -0.051913995 0.20607759
0.56281132 -0.041133378 0.24954532
0.60680628 0.01973472 0.21125989
0.59772766 -0.0048733121 0.15897964
0.58842367 0.035009455 0.23838653
0.59118116 0.035099711 0.2507669
0.61516649 -0.0410184 0.19798744
0.58222622 -0.051152792 0.25038561
0.58068126 -0.048354719 0.21310025
0.61235988 0.0099225705 0.20293838
0.61175215 0.011750869 0.22427219
0.5507887 -0.033337981 0.24977659
0.56848276 -0.045094125 0.21915756
0.57040566 0.029963149 0.22282165
0.56443596 -0.042922214 0.20182653
0.55924064 -0.039586294 0.24878114
0.57077318 0.032319564 0.2459065
0.56201798 0.026233982 0.24275117
0.58283049 -0.046984192 0.25474757
0.56315893 0.027438281 0.24858727
0.55530995 0.031701345 0.24794485
0.55872458 -0.039594777 0.21333949
0.61111975 0.013139684 0.21412523
0.58384752 -0.048031591 0.24125338
0.60711622 -0.041752994 0.23474433
0.57455575 -0.048567824 0.23668277
0.61553532 -0.007725263 0.22411476
0.53594464 -0.0027226976 0.2527532
0.60363233 0.028499663 0.19921716
0.563236 0.030451702 0.24655925
0.57267153 0.033815321 0.24410079
0.54221058 0.00032273377 0.25133315
0.61718035 -0.0093070474 0.25091189
0.54407567 -0.026347829 0.2234339
0.54944611 0.014142816 0.24192919
0.54426402 -0.0068411133 0.24626526
0.54721588 -0.026121726 0.248211
0.54938966 0.0096775135 0.20812306
0.57982099 0.033055928 0.23069286
0.54263031 -0.024280222 0.20522696
0.59736848 0.032965921 0.25116163
0.60374492 0.02299962 0.21202527
0.55653626 -0.040382531 0.25174394
0.60689014 -0.044086684 0.19434798
0.54215032 -0.02376771 0.21076359
0.55012423 -0.033500854 0.22817351
0.55131215 -0.036960773 0.25108272
0.55085462 -0.036346111 0.25040549
0.58833426 0.031838708 0.20147565
0.58524513 -0.049034622 0.22857811
0.5760715 -0.048675649 0.21111418
0.60274482 0.027810536 0.25044358
0.54339343 -0.017055934 0.24912149
0.57445961 0.033113003 0.24169786
0.59677613 -0.00071137131 0.16191554
0.5472998 -0.023682283 0.24841699
0.53999996 0.0091909515 0.24911597
0.59948814 0.029917162 0.2459878
0.56715435 -0.04685048 0.19413924
0.5613696 -0.042012945 0.22399522
0.54511988 -0.027728252 0.24811581
0.61043 -0.041963492 0.24874681
0.60019481 -0.04308128 0.23222756
0.59345198 -0.046265751 0.23978013
0.60308081 -0.046236847 0.24708959
0.61007214 0.023830077 0.20610332
0.58705807 -0.047053326 0.20737931
0.54625505 0.025735142 0.25086302
0.58997411 -0.0046962528 0.15986612
0.59900951 0.029304139 0.22032142
0.545376 0.020012336 0.25022864
0.55796111 0.025535693 0.2465243
0.55304414 -0.028474281 0.21733513
0.55915999 -0.039165426 0.21796378
0.60411084 0.024020467 0.22380775
0.55836785 -0.038941205 0.25063634
0.58926684 -0.047137678 0.22432077
0.59771365 0.032833453 0.23919445
0.57640558 0.038010474 0.23820768
0.56817496 0.027703544 0.2500785
0.61520469 -0.0030560086 0.22196753
0.54334468 -0.020778354 0.25207612
0.55622774 0.021235103 0.23219134
0.58213627 -0.045596123 0.21541168
0.54888308 -0.035938729 0.25414228
0.54350489 -0.025948085 0.2261304
0.60253274 -0.049422171 0.20229977
0.56962872 -0.046171527 0.25144237
0.5413779 -0.022024848 0.22517562
0.59721321 0.037414372 0.24841748
0.5930931 -0.0048396182 0.15970878
0.55279434 0.017103564 0.228633
0.5925408 0.031863488 0.20307082
0.54496378 -0.029892916 0.24972925
0.55397499 -0.033569828 0.25078145
0.54944545 -0.031682491 0.23050511
0.60369194 0.03499886 0.24794926
0.61373824 0.0066026561 0.20393638
0.55273104 0.022457464 0.24809787
0.57273161 -0.049752846 0.25098982
0.58225465 -0.047066063 0.2144665
0.61402518 -0.0093336431 0.23159465
0.5933212 -0.050087087 0.19395818
0.61512661 -0.0021012998 0.20096551
0.53436983 0.0029298272 0.25201741
0.58250707 -0.048662245 0.2447945
0.61608857 -0.0046935426 0.21446338
0.58363765 0.035150316 0.23321131
0.61534369 -0.0073930249 0.24862994
0.6109032 0.02275883 0.25155702
0.54593474 -0.022031898 0.24797162
0.54888338 0.032895394 0.25214407
0.59911388 -0.043209773 0.23787256
0.58191168 -0.049861219 0.24966572
0.60365427 -0.042363554 0.23536186
0.62080741 -0.050663978 0.22639512
0.55681616 -0.038216773 0.21203884
0.60681325 0.020182775 0.20347005
0.53651917 -0.014819337 0.25090304
0.54868555 0.0097632119 0.21842726
0.60040814 0.029125022 0.22957818
0.61020637 -0.018746529 0.23613554
0.54061669 -0.0025700633 0.25040367
0.5415647 -0.021422962 0.23249051
0.5723989 -0.048415087 0.23750821
0.54924816 -0.030313889 0.24853447
0.56695914 0.026989289 0.19259691
0.54517329 -0.012402072 0.2474727
0.56808937 0.032490242 0.24439865
0.61510199 0.0046017468 0.24652159
0.58293438 0.037968636 0.2498084
0.57200634 0.032051098 0.24555446
0.55800706 -0.039034076 0.23644817
0.58158255 0.039371151 0.25282553
0.60449749 0.023749454 0.23058571
0.61208814 0.01133762 0.21060716
0.55534309 -0.039642099 0.25023973
0.59925026 -0.049394812 0.25209963
0.5805108 -0.048831291 0.24896973
0.59481782 0.03591124 0.24602261
0.54775494 0.0051176976 0.24336703
0.56245571 -0.041363578 0.24985047
0.58085835 0.03525795 0.22367343
0.61340231 0.017832208 0.25402045
0.60558337 0.021926414 0.2257612
0.57346773 -0.047117222 0.22854654
0.59725821 -0.047739975 0.2480382
0.55606043 -0.036214795 0.22371145
0.60523242 0.026257537 0.22828749
0.55795419 -0.037961464 0.21641085
0.6131739 0.010845122 0.24603219
0.55589986 -0.03699252 0.2138043
0.60713178 0.027538272 0.25104612
0.598104 0.028468303 0.21032353
0.58814126 0.034086414 0.23349133
0.60863233 -0.042057145 0.24193774
0.55705923 -0.038115196 0.2504465
0.54987895 0.015567848 0.24385914
0.58643204 0.03112302 0.20930783
0.57647902 -0.048047166 0.21132524
0.56350762 -0.042575102 0.20293811
0.59287626 0.031960692 0.21550924
0.55272257 -0.017973373 0.24587564
0.61774707 -0.044281319 0.20102738
0.58955336 0.033672407 0.23692223
0.57144898 -0.049530081 0.19406822
0.55019373 -0.023180908 0.24750282
0.60625243 0.02582101 0.22883619
0.60367882 0.026567332 0.2303753
0.54597205 -0.029852845 0.22728162
0.59382999 -0.048308864 0.2511614
0.60214704 0.0269609 0.21757202
0.57294297 0.032037329 0.23421536
0.58090127 0.031709448 0.21946225
0.54431641 -0.026763294 0.21784036
0.5733214 0.03156805 0.24658324
0.54657251 -0.0035336677 0.24357365
0.60870588 -0.045099568 0.1967863
0.56442529 -0.042566162 0.24852656
0.54666561 -0.023728186 0.2486563
0.59701031 0.033319436 0.23854244
0.60964 -0.045215763 0.23931202
0.54786259 -0.024036566 0.24464889
0.56401724 0.025760161 0.23539799
0.57777476 0.033463255 0.23429209
0.60479385 0.026239596 0.23219462
0.6005556 -0.041967575 0.2338831
0.60381675 -0.04578916 0.19552141
0.55462259 -0.037447907 0.212782
0.58457106 0.034998707 0.2214144
0.61448884 -0.045323767 0.19579944
0.6051743 0.023119129 0.23860829
0.57421368 0.041186128 0.25291476
0.56192529 -0.042622969 0.22670814
0.56790519 0.038244948 0.25141689
0.58230728 -0.045441318 0.25560534
0.59165347 0.037769619 0.24724361
0.57589895 -0.046270277 0.25425893
0.60673708 -0.031854656 0.25438523
0.57036591 0.029264444 0.21245752
0.61500001 -0.00024367317 0.23882803
0.58262247 0.035377223 0.24585903
0.60888052 0.024051446 0.23660615
0.54232341 -0.02069959 0.23749416
0.60323131 0.024909258 0.21722108
0.61503667 -0.02394839 0.25520146
0.55030805 -0.029664537 0.24859799
0.56566477 -0.045362782 0.20653322
0.54267019 0.0045250258 0.25090158
0.536677 -0.0098987035 0.22212279
0.60479575 0.026578955 0.25037783
0.55955917 0.023667928 0.20489211
0.61895478 -0.05000902 0.21369685
0.55424392 -0.033833742 0.25050738
0.60786891 -0.042738114 0.24526431
0.58429766 -0.047837485 0.23201428
0.59644198 0.031448573 0.23390922
0.60521233 0.024347974 0.23547365
0.54156411 0.023192732 0.24917443
0.54999453 0.016711717 0.24948479
0.54987282 -0.033661764 0.2116711
0.54472297 -0.024160707 0.24921152
0.54479569 -0.024623767 0.23998784
0.54665399 -0.0017223414 0.24215375
0.59620219 0.031225512 0.23138557
0.58614987 0.03391894 0.24099551
0.57513237 0.029176589 0.19919565
0.5710969 0.029317351 0.21218172
0.54412878 -0.0239118 0.24961351
0.54011929 0.0060957051 0.24966931
0.55415678 -0.036176182 0.23513529
0.56339467 0.025775399 0.21575907
0.61496049 -0.012167907 0.24489953
0.54654294 -0.026647456 0.23943268
0.60916263 0.01603275 0.20166883
0.58590066 0.03585897 0.24442843
0.58043993 -0.04722143 0.24998011
0.59658372 -0.047407024 0.24938142
0.60388422 0.025920885 0.24269144
0.56359905 -0.041685503 0.23749506
0.61563164 0.0034367368 0.25000834
0.5483464 -0.026724637 0.24494666
0.55743718 -0.037415136 0.21881905
0.61175621 0.019567996 0.25202903
0.61983001 -0.052863609 0.21341401
0.59270668 -0.048897609 0.20744753
0.61745322 -0.050024621 0.23318946
0.57777888 -0.049269494 0.23576267
0.54949516 -0.029435072 0.23760694
0.60032791 -0.047433622 0.24906448
0.55221003 0.017240042 0.2351844
0.57487488 -0.048872828 0.24311706
0.56220227 0.025252089 0.21096519
0.54179972 -0.023277633 0.20552082
0.57437885 0.032461602 0.23386867
0.55667436 -0.040948432 0.24888305
0.57631755 -0.045668278 0.22381529
0.61131823 0.010765987 0.21924995
0.54233021 -0.024971383 0.22622031
0.55127907 -0.035465244 0.25076312
0.56917733 -0.041471533 0.21356876
0.54709226 -0.034180164 0.25447831
0.54715151 -0.027981412 0.19533634
0.59885961 0.02943423 0.23166353
0.57647115 0.030242648 0.20301402
0.54117286 -0.020513535 0.2329513
0.53351778 0.0056858216 0.25088593
0.61410105 -0.048056398 0.23690362
0.57299662 -0.048437875 0.24988711
0.5402022 -0.016437344 0.2367927
0.60763657 0.024685271 0.19893971
0.61390382 0.0022059949 0.19400969
0.59531903 0.030101361 0.19622959
0.61276579 0.0097433301 0.20708628
0.54969919 -0.034352638 0.20700566
0.54911023 -0.037744779 0.25293118
0.61199141 0.021343246 0.23115686
0.57048893 0.02874968 0.21084777
0.61360657 0.0028077576 0.21731307
0.61236477 0.017154992 0.24890108
0.58356678 0.040016547 0.25436789
0.56795043 0.027170476 0.19104512
0.54261994 -0.0084338421 0.24847685
0.6022979 0.029893419 0.19938397
0.60587072 -0.041222431 0.2285587
0.5952574 0.030675251 0.20906931
0.62034214 -0.053289421 0.21337481
0.56160772 0.02378899 0.19290286
0.59019572 0.033378329 0.2218859
0.60366207 -0.04205947 0.23515722
0.60097349 0.02767436 0.24377617
0.54779983 -0.032122161 0.19950746
0.61414075 0.0082054073 0.22564639
0.60690314 0.020390013 0.22398208
0.61472476 0.0032889694 0.24399588
0.56917334 -0.048336159 0.19552934
0.55138415 0.012077105 0.20998847
0.54053342 -0.019620264 0.23462117
0.57917273 -0.0490667 0.23375577
0.5669173 0.028012052 0.23679183
0.57564741 -0.047829118 0.21554172
0.59334224 -0.0051613897 0.15816343
0.54866427 0.012948493 0.2452645
0.5457142 -0.032170732 0.2511591
0.58112699 -0.053359691 0.25231883
0.54995775 0.011194885 0.24116251
0.58782691 -0.049620084 0.24696496
0.5594095 0.024471892 0.24277718
0.60061979 0.028199213 0.22892509
0.61252266 0.019341266 0.25059968
0.54960692 -0.0376187 0.25329107
0.54143643 -0.0056738602 0.24941219
0.53988385 -0.02137685 0.22485134
0.54886144 -0.029095121 0.24819534
0.54613853 -0.033095017 0.25341287
0.59652352 0.030249603 0.19207907
0.55405849 0.016203851 0.2088861
0.6142664 0.018072309 0.23069476
0.5463655 -0.016249411 0.24836023
0.5787974 -0.049620416 0.23428357
0.55863053 -0.040530838 0.25094244
0.61135894 0.01225866 0.21766552
0.61506665 0.0068589468 0.25087684
0.55838668 0.026192019 0.24674471
0.56490439 -0.045109864 0.25255248
0.54628241 0.003447559 0.25006309
0.60992253 0.016312649 0.22530252
0.54020959 -0.0051598847 0.25024226
0.56135803 -0.039778985 0.23905255
0.55115718 -0.038101725 0.25045311
0.55719584 0.024854776 0.24643208
0.59107792 0.032168023 0.20386377
0.60460335 0.026116855 0.23468898
0.55366075 -0.033260338 0.2457165
0.61637992 0.020893453 0.24396649
0.53879625 -0.020363411 0.21147463
0.53410852 -0.0080317445 0.25191012
0.54481125 -0.003332231 0.24692737
0.55282855 -0.023969701 0.24715647
0.61316186 0.011506071 0.23974334
0.61269057 -0.019690875 0.25302163
0.61365122 0.0043162573 0.20626408
0.61388487 0.0045922217 0.21065545
0.58430421 -0.052944254 0.25195277
0.56518513 0.028265912 0.21901028
0.55011749 -0.032619789 0.22882023
0.61123216 0.015705204 0.23639005
0.5697574 -0.045225233 0.22124459
0.61393577 0.0088943299 0.24229339
0.54726636 -0.027073128 0.2099724
0.55432171 -0.037665442 0.21110576
0.53807598 -0.019743893 0.21425308
0.58831948 0.034625266 0.24424464
0.58776677 -0.046961885 0.20446654
0.5436148 -0.024194652 0.21529733
0.61343378 0.0096232546 0.23985365
0.57872987 0.03265566 0.23090889
0.60401696 -0.04705761 0.25105247
0.61864436 -0.0077317003 0.25421524
0.55123794 0.015666211 0.24334635
0.59291661 -0.050684012 0.19452716
0.59423167 0.035874065 0.25297725
0.60223025 0.024915444 0.21939598
0.57896334 -0.054304339 0.25259975
0.5514133 -0.03045848 0.22571874
0.60134441 0.028565368 0.22884275
0.57901388 0.035702564 0.23384315
0.5763734 -0.04691596 0.21828078
0.54932487 -0.037923254 0.25291476
0.56945956 0.029222444 0.23396888
0.61055648 0.014113506 0.1982929
0.61345845 0.0040862248 0.21953121
0.61243695 0.02477197 0.24956542
0.58534181 0.038248084 0.252662
0.59857649 0.028772337 0.22163418
0.54803509 -0.028274842 0.23632492
0.5385502 0.011488068 0.2524561
0.61527884 0.0011748896 0.20481966
0.59763682 -0.036096428 0.25584382
0.53212082 -0.0029559352 0.25052688
0.58340204 0.031890452 0.21851864
0.59305704 0.033919726 0.24684146
0.57410681 0.029835608 0.20874012
0.59348112 -0.001983413 0.16128491
0.6150831 0.0016794746 0.24300033
0.55854446 -0.038288232 0.24971521
0.61258644 0.021278713 0.22962241
0.57492685 0.033936545 0.24432559
0.61291802 0.013316456 0.25042704
0.55162531 -0.028201306 0.23942012
0.59957528 0.028381215 0.21952085
0.60699707 0.028306149 0.2424801
0.61088264 0.015863005 0.23225665
0.61005199 0.024248049 0.25093681
0.56075627 -0.03956303 0.2388887
0.5535714 0.018623658 0.23047577
0.57226449 0.027960043 0.19593006
0.59354079 0.031241309 0.22616757
0.58867043 0.036212455 0.24888542
0.60237354 -0.047280263 0.24808417
0.53876114 -0.020167897 0.21295413
0.57038754 0.030718926 0.23946691
0.54997861 -0.027222 0.23056197
0.58445853 0.034503922 0.21828066
0.60429007 -0.048690297 0.25328985
0.59075367 0.035419393 0.24370252
0.59921795 0.03194394 0.24175195
0.57304919 0.032696258 0.2420384
0.6127826 0.011819558 0.22893862
0.61551791 -0.0069713653 0.22059979
0.53535229 -0.01076299 0.25191629
0.53227031 -0.0047900309 0.25060737
0.58900404 -0.047789823 0.23123482
0.59649348 0.029540975 0.23462301
0.61291873 0.010067242 0.24532092
0.58245587 0.03660484 0.24667694
0.59324259 -0.00094013114 0.16202086
0.57762671 -0.049787361 0.24835838
0.55223691 0.016593758 0.23726827
0.5563392 0.021653196 0.23862104
0.58206213 0.033887442 0.21518417
0.61454159 0.003388783 0.22230636
0.59704989 0.029370457 0.23344201
0.55833578 0.032687075 0.24623579
0.54951948 -0.023521621 0.24757944
0.5475533 0.006845369 0.20717196
0.58507419 -0.04838356 0.23458999
0.60862714 0.018648671 0.21956071
0.59887326 0.026965378 0.20285714
0.615161 0.002838921 0.23577371
0.61610186 -0.0077343341 0.19868548
0.55938131 0.039164066 0.25157839
0.54570192 -0.028948378 0.22915821
0.5758096 0.030106204 0.20694296
0.6013968 0.03242163 0.24734676
0.5672797 -0.044194773 0.23946127
0.54507607 -0.026810346 0.23310827
0.58472472 0.031998195 0.22673774
0.59373599 -0.049798701 0.19613686
0.54867142 -0.030748108 0.23077899
0.61203837 0.0094476799 0.19970703
0.6025095 0.028075647 0.24625157
0.61339718 0.030000664 0.24828155
0.59391361 -0.0015985928 0.16133702
0.55020642 0.01827191 0.25034574
0.55620003 0.032550137 0.24769546
0.53488743 -0.0049828039 0.25187102
0.61377484 -0.045067519 0.19560501
0.58456349 0.037908357 0.25199315
0.56438601 -0.042426419 0.2509551
0.5467518 -0.030794052 0.22700574
0.55746639 -0.035716943 0.24188627
0.5875594 0.031383343 0.21272452
0.55111039 0.014556227 0.22032465
0.61521822 -0.0046629002 0.23839135
0.53830332 -0.02160655 0.25226775
0.57302439 -0.047445592 0.22768046
0.61427969 -0.012872509 0.24130562
0.55482161 0.019195111 0.22905256
0.58367556 0.036379918 0.24632575
0.58688068 -0.04296216 0.25583005
0.54654646 -0.025213633 0.24981518
0.56737244 -0.047585618 0.19835392
0.61269301 -0.028885588 0.25571427
0.61107785 0.01398694 0.2309767
0.57062727 -0.044703916 0.25529128
0.54887992 -0.033363689 0.20729554
0.57594758 0.031429198 0.24809478
0.59764481 0.029650852 0.19746391
0.54458773 -0.027628722 0.22682564
0.59865075 -0.047017183 0.24568759
0.58350325 0.033661895 0.19818923
0.56002653 0.023248132 0.19821745
0.58343893 -0.048641413 0.22909372
0.55725521 -0.039616212 0.25092778
0.57809377 -0.049641613 0.25116047
0.54903036 -0.03660024 0.2537331
0.61026222 0.01491916 0.21497805
0.61148894 0.012255147 0.21502468
0.57193226 -0.047120422 0.25285453
0.61234409 0.021141253 0.25200889
0.60740137 0.020728871 0.21637553
0.56661481 -0.044062953 0.25150791
0.5742985 0.033529736 0.24486484
0.60479569 -0.045712128 0.24600554
0.56268209 -0.040396571 0.20816484
0.61966044 -0.050174374 0.2085377
0.55116302 -0.035178334 0.21259876
0.57235962 -0.047605909 0.24941789
0.57352364 0.032516766 0.2355071
0.55605286 0.018584739 0.1995405
0.55044353 -0.02735085 0.21388695
0.57298434 -0.043067243 0.25641155
0.56332332 0.025709935 0.23565984
0.54561281 -0.013389564 0.24793047
0.61195195 -0.038235638 0.24307735
0.59539235 0.030160215 0.23584259
0.54373026 -0.015229708 0.23931997
0.60248816 0.023365241 0.19807954
0.54808748 -0.024312858 0.2489454
0.61603844 -0.0030428788 0.21430086
0.57447654 0.031771522 0.22967397
0.53770965 -0.013673623 0.22124511
0.54889703 -0.026962677 0.24359383
0.57302821 -0.048934251 0.24267714
0.59138584 -0.049774583 0.25190783
0.58722937 0.032971095 0.23871888
0.54728866 0.0016852712 0.24147293
0.56375128 -0.041493841 0.24810624
0.56433547 -0.045126099 0.20439981
0.6148054 0.0032001121 0.24668171
0.61453563 0.019711064 0.23282383
0.56344306 -0.040984921 0.23792841
0.60740453 0.019486491 0.2073359
0.61089021 0.024597453 0.24231383
0.55132365 -0.028723061 0.24862874
0.58823216 0.036244735 0.2486738
0.54596549 -0.027916688 0.23141535
0.5404793 -0.019921865 0.21812089
0.57597524 -0.050119702 0.24760753
0.55392861 -0.035986464 0.23515275
0.54521143 0.0009455136 0.24687535
0.61329716 0.0072417306 0.22041973
0.54406917 -0.0039925142 0.24683796
0.53873783 -0.013134483 0.23302782
0.55386221 0.01913045 0.23190632
0.58082479 0.034345064 0.2162113
0.61528134 -0.045395959 0.23950149
0.56767726 -0.048006158 0.19722745
0.56631732 -0.044084489 0.25162017
0.55996025 0.02786972 0.24710344
0.6041137 -0.041149385 0.22926512
0.61400539 -0.010914488 0.23177117
0.61180699 0.021492871 0.20270428
0.56631857 0.027244989 0.20422228
0.54882258 0.0066054342 0.20151329
0.5405885 0.017601617 0.25129351
0.58423245 -0.048270844 0.24252032
0.55679613 -0.035609398 0.2520836
0.60900879 -0.040642373 0.24083942
0.61471403 -0.0074497811 0.24283358
0.59037566 -0.047275592 0.22520961
0.55713725 -0.03470869 0.24136019
0.54394746 -0.024784993 0.23264289
0.58569312 -0.043705773 0.25599724
0.56452715 0.026298853 0.20564535
0.54463977 -0.023923194 0.24042118
0.5958975 0.029941117 0.21022531
0.54155576 0.00075820769 0.25132617
0.55886674 -0.037707541 0.23924324
0.5410136 -0.016221203 0.24938837
0.61539263 0.00043813823 0.24360435
0.56867903 0.029531371 0.2382192
0.57800931 -0.048244379 0.21304904
0.54894787 0.0080518611 0.20607467
0.59809363 -0.043000426 0.22925501
0.57304806 -0.051052175 0.25171405
0.54655302 0.022090061 0.25104058
0.56064218 -0.043133896 0.23014534
0.56761992 0.030100685 0.2427455
0.55017722 -0.037823372 0.25344637
0.56671727 -0.045277435 0.23787183
0.61477309 -0.012391832 0.24869572
0.61492366 0.019838221 0.23398215
0.54626447 -0.028305983 0.23399672
0.55136466 0.015079198 0.2404466
0.53503871 -0.001969445 0.25282255
0.57336545 -0.047869056 0.25007814
0.61396271 0.0042519192 0.21857038
0.60012871 0.02532707 0.19826014
0.56338227 -0.044956613 0.20214929
0.60612011 -0.042121418 0.23286837
0.61463016 -0.019463586 0.25423136
0.59521902 0.031063322 0.2030797
0.57257593 0.029785546 0.21433242
0.57081413 0.034825727 0.24552169
0.60184014 0.029187372 0.19914687
0.56152004 -0.041335594 0.23799056
0.53712124 -0.015445394 0.21826717
0.57616115 -0.048750944 0.24836284
0.58664256 -0.046531588 0.22122519
0.59165806 0.032306336 0.20409301
0.61133647 0.012041465 0.21884719
0.58431888 0.032435939 0.21970889
0.61145234 0.01492483 0.2399945
0.5979439 0.02771746 0.20020494
0.60061371 0.028309898 0.24405202
0.57924491 0.033459365 0.23989223
0.60112828 0.02927864 0.23434593
0.57745916 0.031576481 0.22456503
0.58325326 0.035112962 0.24543224
0.55130136 -0.03172094 0.24953264
0.59942323 -0.04418857 0.2409354
0.59604341 -0.050320942 0.19421747
0.58844274 -0.047011349 0.21949558
0.58367497 0.035763323 0.24565065
0.55438495 -0.036365904 0.23511782
0.61513072 0.0015901156 0.23754376
0.56271183 -0.043671589 0.20795605
0.56200731 0.025170263 0.24086338
0.55277199 -0.033824865 0.23748098
0.60875523 0.025037067 0.23850369
0.59052831 0.03053122 0.2209097
0.54002494 -0.018721662 0.22824107
0.57713431 0.033953376 0.23734933
0.59400147 0.031207375 0.22639
0.60172284 0.026839273 0.21377324
0.54738086 -0.003033055 0.24229349
0.61185396 0.025159663 0.24955921
0.56553847 -0.043504696 0.25479677
0.54314315 -0.01634785 0.2441341
0.59203613 -0.051120888 0.25251973
0.59338671 0.031532209 0.22900765
0.60296679 0.023561688 0.2025438
0.61489481 0.0030602582 0.2357941
0.60271221 0.025183368 0.2239148
0.54694903 0.032307979 0.25202534
0.55468261 -0.035830654 0.25080076
0.61813432 -0.014424855 0.25441694
0.5507341 -0.038979646 0.25009668
0.54804176 -0.029143093 0.2356876
0.57537192 0.033376489 0.23276301
0.54271555 -0.024663063 0.20499015
0.54961032 -0.027460448 0.23087804
0.54532105 -0.025116105 0.25155091
0.55456513 0.033887684 0.2505126
0.59866983 0.029018059 0.21374139
0.60883105 0.021513291 0.25199783
0.57980657 -0.050626032 0.25107637
0.55840111 0.021878043 0.22544494
0.53719795 -0.014282538 0.25301793
0.58863896 -0.048026212 0.23154816
0.54358041 -0.025894403 0.20319179
0.61473644 -0.010371727 0.24068882
0.6152547 0.018143848 0.23032182
0.61601532 -0.0020606637 0.24615659
0.60956502 0.025254 0.24078339
0.62103242 -0.054639831 0.21139477
0.55711174 -0.035868291 0.24596047
0.61480844 -0.00540365 0.23356229
0.60296047 -0.047515344 0.20085372
0.55361891 0.021586282 0.24719311
0.56390327 -0.043358456 0.25182313
0.59568965 0.030128188 0.19608973
0.58732516 -0.045341846 0.25566632
0.59335357 0.032294884 0.2403852
0.60100979 -0.035305168 0.25553173
0.55520505 0.019090006 0.21887167
0.55245286 -0.026132643 0.24724178
0.61066991 0.021695787 0.20081826
0.57062167 -0.050216347 0.25220308
0.62067837 -0.050001431 0.22546083
0.54748911 -0.030126467 0.19661134
0.54962653 -0.026826719 0.23045154
0.56383955 -0.043598205 0.23621243
0.56401926 -0.043792777 0.22021352
0.56576252 -0.044603754 0.2238232
0.59093171 -0.049100809 0.24273963
0.59100688 -0.049042992 0.2477646
0.55586511 0.023307934 0.24729514
0.57807821 -0.050249774 0.25156975
0.60361493 0.023678895 0.2111028
0.54550201 0.009248985 0.24932152
0.58260304 -0.050011721 0.24946836
0.54906189 -0.029561557 0.25033906
0.61314923 0.010192596 0.24689132
0.54995108 -0.035564862 0.25393128
0.6075784 0.020749096 0.2367963
0.58596557 -0.048021328 0.22632393
0.61644465 -0.0096097318 0.24893919
0.55194908 -0.027580265 0.21721372
0.5910297 0.032738831 0.20832139
0.55873996 -0.03889301 0.22178555
0.57771993 0.034784891 0.24383102
0.58698034 -0.046828985 0.20344248
0.58269477 0.032862268 0.23931912
0.55211943 -0.031581864 0.22615908
0.55476415 -0.038136102 0.20557983
0.54612958 -0.030061705 0.25293905
0.61330396 0.0072017941 0.2122696
0.59343773 0.029634198 0.19242878
0.61118537 0.015496704 0.24162723
0.5882585 0.038080689 0.24761933
0.53911173 -0.018160235 0.21597847
0.59343576 -0.047334094 0.24176821
0.54035902 -0.016428532 0.24094556
0.60741568 0.022654993 0.24488598
0.54587692 -0.027406471 0.23445249
0.53577679 -0.0040223724 0.25305775
0.59681273 0.03112575 0.24273455
0.54687399 -0.017636165 0.23701477
0.6178993 -0.00022946941 0.25393653
0.55575728 -0.033159465 0.2409274
0.53797126 -0.016600711 0.21651694
0.60928845 0.016479615 0.20342034
0.54449934 -0.027284546 0.20265932
0.56458884 -0.043814406 0.25183043
0.58450049 -0.048635338 0.24009869
0.56915694 0.028515669 0.22744389
0.55134261 0.012285409 0.20764402
0.54740232 -0.031211929 0.20809008
0.57458836 0.036268517 0.2048025
0.5505597 -0.032454599 0.23324186
0.57139486 0.028725853 0.2492924
0.56324613 0.025770286 0.23946236
0.55484128 -0.036745336 0.23508288
0.61804456 0.0029589885 0.25366002
0.54872984 -0.032341462 0.22828023
0.59502566 0.029291984 0.19438323
0.59137052 -0.050373618 0.25231099
0.58649838 -0.048693605 0.23418343
0.58779329 -0.047778286 0.22537787
0.5806585 -0.047743943 0.24956976
0.56460887 -0.044561405 0.19626516
0.6151166 -0.0022662757 0.20219244
0.53531182 0.010348602 0.25122935
0.54895395 -0.027838998 0.23849432
0.60110122 0.025854198 0.21948239
0.60131979 -0.047560103 0.25126991
0.53487492 0.013677304 0.25074363
0.56176347 0.024981346 0.20351876
0.56837165 0.028823357 0.23418427
0.59864289 0.035138525 0.24767324
0.54958308 0.011147463 0.21889211
0.58885288 0.031952918 0.19844756
0.58663863 -0.046381135 0.2045667
0.60315025 -0.046353702 0.24204154
0.54123956 -0.018355252 0.23864238
0.56181753 0.024272224 0.23790756
0.60866499 -0.047074653 0.25161478
0.61462194 0.0065709045 0.23553081
0.54993826 0.0094157513 0.20275478
0.61778438 -0.048405368 0.23727071
0.56845176 -0.041788246 0.21294521
0.56208426 0.024736531 0.23932236
0.55871195 -0.037593763 0.24514139
0.60625452 0.025623353 0.21751523
0.54481447 -0.02783191 0.23085959
0.57509536 -0.053035937 0.25214779
0.61489141 0.00059585308 0.20553814
0.61323982 0.020120995 0.23237516
0.56727171 -0.044507988 0.23967206
0.61643493 0.02330431 0.24665606
0.54131424 -0.021432515 0.23370293
0.54087979 -0.022577269 0.20960571
0.57620931 0.030725317 0.21835129
0.54246014 0.0082578501 0.25106841
0.56779087 -0.044691533 0.24721389
0.54152638 0.0028150433 0.24956697
0.54300612 -0.023966925 0.19753578
0.58715928 0.034272276 0.23445503
0.61877936 -0.012352295 0.25358522
0.61531734 -0.0063483631 0.24532478
0.61375493 0.0044240188 0.20233722
0.54210204 0.012432804 0.25020465
0.56419033 -0.044341099 0.22305083
0.58028096 -0.046603791 0.21433538
0.57540983 0.033828557 0.23800002
0.59765691 -0.038710795 0.25392482
0.61359942 -0.014565789 0.23833627
0.61672813 -0.010281416 0.25265783
0.57254916 0.030118296 0.22201283
0.58838183 0.036549501 0.24663477
0.61471391 -0.019839915 0.25399858
0.58676314 0.034485545 0.23169157
0.55994427 -0.041689076 0.22948867
0.55872589 0.024422411 0.24303514
0.5505476 -0.02950122 0.23676941
0.60761982 -0.041603211 0.2280594
0.61879539 -0.050306976 0.23099396
0.6116395 0.011239482 0.20081536
0.55308628 -0.031710427 0.2207333
0.58749121 -0.050284628 0.248823
0.54562324 -0.00085575692 0.24560471
0.55466193 -0.034825433 0.23775773
0.5499751 -0.039272472 0.25226811
0.54087627 0.0087772086 0.24973908
0.54692858 -0.031808693 0.20062484
0.61999547 -0.055037688 0.20783596
0.54038918 -0.018694671 0.23387289
0.54597694 -0.017352987 0.23848659
0.55001104 -0.027430536 0.2408772
0.54514629 0.030056193 0.25210288
0.55823976 -0.038310289 0.2498302
0.60209668 -0.046558943 0.24390391
0.62247425 -0.052675977 0.22580539
0.54593158 0.0008417028 0.24526425
0.56758463 -0.044645257 0.22816348
0.6039784 -0.047735419 0.25279161
0.54727745 0.005856025 0.24277349
0.61535096 -0.0092767216 0.24453531
0.58785909 -0.049450148 0.24811253
0.61288714 0.011652599 0.23564179
0.59657437 0.033446204 0.24129218
0.56136566 0.030786302 0.24828757
0.56468201 -0.041928612 0.20675427
0.55139774 -0.039377261 0.25295502
0.61234421 -0.040836494 0.23993513
0.5500589 -0.028331568 0.24527478
0.57097721 -0.049986143 0.25189793
0.5446775 -0.018850438 0.24873178
0.61930805 -0.050994575 0.23211585
0.59714234 0.028212782 0.20149402
0.54355288 -0.025975961 0.2004087
0.60946506 0.01870374 0.23223795
0.55208099 -0.031548534 0.24653578
0.54775476 -0.031869546 0.20102374
0.56888843 0.029176686 0.22547081
0.6194858 -0.055588048 0.20715591
0.53837287 -0.016653016 0.21940221
0.59168321 0.030652838 0.19630027
0.56628251 -0.044886775 0.25146821
0.55314595 -0.032470573 0.23732752
0.53967172 -0.015471769 0.23586643
0.60554165 0.026456377 0.23823357
0.61498898 0.0079221446 0.22724704
0.59651297 0.028055299 0.19426939
0.56676567 -0.044561259 0.22718582
0.58663571 0.033931099 0.21361122
0.53416026 -0.0094917007 0.25221434
0.53815722 -0.01139564 0.22587514
0.53595048 0.00804938 0.25122938
0.5990997 0.03049086 0.23345029
0.55901027 0.022489892 0.2019171
0.60717005 0.018569032 0.19840842
0.56621146 0.028630616 0.24119927
0.53920233 -0.020393321 0.2116707
0.6141665 0.0082604019 0.23517917
0.57850605 0.034363277 0.21362504
0.59320986 0.032030638 0.22386435
0.56356466 0.028654238 0.24481785
0.62012988 -0.049356021 0.21887229
0.54323149 -0.008690021 0.24806312
0.54827744 0.01875023 0.25145
0.60122216 0.026250884 0.22661042
0.58977127 0.034492306 0.23602062
0.5760296 0.036933295 0.23585653
0.61398125 -0.019230707 0.25405467
0.57760841 -0.048212878 0.24660142
0.56589651 0.028298406 0.21624143
0.58854717 -0.051659185 0.25182712
0.58179516 0.035087839 0.2348835
0.55538362 -0.036973082 0.23385203
0.587731 -0.050108008 0.24350749
0.54692227 -0.028091388 0.20742749
0.613419 0.0074260319 0.22468337
0.56429267 -0.043956872 0.2240264
0.5838834 0.035227455 0.23204625
0.55807161 0.022455247 0.23589066
0.61464202 0.00043934208 0.19987248
0.55376029 -0.029613623 0.21778174
0.6042068 0.023589442 0.22354114
0.55085933 -0.029918332 0.24725531
0.54290044 -0.025019333 0.19941029
0.56703758 0.028732659 0.21851389
0.60968214 0.016238408 0.21699429
0.61236525 0.010820857 0.20495836
0.61387539 -0.013812138 0.24174888
0.54315871 -0.015739685 0.24372481
0.54236156 -0.020394189 0.23909414
0.59958202 0.029799279 0.23158143
0.58168489 0.032160077 0.22562853
0.56156629 -0.041708045 0.23638643
0.60552764 0.022449305 0.21122271
0.59729689 0.030370086 0.24108283
0.55937403 -0.039095029 0.22037305
0.53835177 -0.013904082 0.22141998
0.55455297 0.023524778 0.24798015
0.5366742 -0.013834939 0.24629672
0.5928089 0.031910144 0.22220598
0.57014811 -0.044501882 0.25224042
0.60947245 0.017537301 0.22867282
0.62029839 -0.053743411 0.21843237
0.55402642 -0.037522677 0.20563629
0.61249036 0.0080010211 0.20429821
0.55360693 -0.039034214 0.25304094
0.54906887 -0.018647723 0.24824908
0.59629411 0.030093791 0.236278
0.60325921 0.023318568 0.20252143
0.57190055 -0.042987414 0.25588825
0.58735234 0.030889506 0.20006692
0.58594972 -0.048365343 0.21127178
0.5505566 -0.030011836 0.2245172
0.608078 0.018512664 0.21645723
0.60230172 0.030854087 0.24352185
0.55157185 -0.027453603 0.24805295
0.55631524 0.022482747 0.24411403
0.61466914 0.016073994 0.25475723
0.54683858 -0.032037724 0.22613436
0.60174745 -0.046785027 0.24420358
0.61334401 0.0083736246 0.20503183
0.55220354 -0.029969573 0.24289007
