# .PCD v0.7 - Point Cloud Data file format
VERSION 0.7
FIELDS x y z
SIZE 4 4 4
TYPE F F F
COUNT 1 1 1
WIDTH 1390
HEIGHT 1
VIEWPOINT 0 0 0 1 0 0 0
POINTS 1390
DATA ascii
0.54686177 -0.040164907 0.21497391
0.53255665 -0.116146 0.25653014
0.54522032 -0.031983286 0.25369552
0.54886174 -0.034178466 0.25267705
0.56356102 -0.041978769 0.25075284
0.57481837 -0.1087615 0.25338173
0.57416087 -0.047025193 0.25492218
0.56748295 -0.044513408 0.2495576
0.60475802 -0.084615499 0.23736134
0.53502893 -0.028948348 0.25452355
0.54777241 -0.11818718 0.19999282
0.57432783 -0.076059848 0.24085659
0.52731454 -0.11234067 0.24567901
0.50353217 -0.075875722 0.25368828
0.50662345 -0.08005318 0.25108519
0.56272078 -0.043429859 0.23027349
0.52551222 -0.11654454 0.25433251
0.53511107 -0.11720211 0.20860291
0.6054365 -0.087599292 0.1995527
0.55829459 -0.11757109 0.20143346
0.55347323 -0.11872292 0.22974683
0.57672012 -0.047521453 0.25032923
0.5076232 -0.10446706 0.2571741
0.57791877 -0.1044605 0.23782732
0.54260224 -0.030369369 0.25483462
0.5721963 -0.056962058 0.23891471
0.60412419 -0.081027947 0.23551513
0.5314247 -0.035811745 0.23939663
0.55225629 -0.11050954 0.25773239
0.57571429 -0.072934248 0.24390866
0.51638788 -0.10438108 0.2170773
0.59838915 -0.074044243 0.2359641
0.57410443 -0.060552552 0.23593523
0.57491654 -0.043376941 0.25084883
0.57396322 -0.053917348 0.24856491
0.56885529 -0.052969526 0.20350768
0.58886385 -0.073659241 0.2501705
0.55568266 -0.11785489 0.2193051
0.55681992 -0.041722212 0.22430207
0.55138063 -0.11812788 0.22006039
0.51809013 -0.10400783 0.23266011
0.52499163 -0.11120547 0.23191206
0.52341771 -0.11263547 0.21315181
0.50250918 -0.098907493 0.2558229
0.5720787 -0.061575834 0.21378078
0.53816301 -0.11672092 0.20697296
0.5571937 -0.041264459 0.22348674
0.54239666 -0.11776832 0.24533983
0.56756091 -0.1125553 0.23999347
0.56956136 -0.051769555 0.23185395
0.54034376 -0.037018944 0.2526364
0.59925342 -0.083740667 0.23914738
0.5805037 -0.061449945 0.256313
0.52726132 -0.11380114 0.25543094
0.49818099 -0.060987312 0.25440899
0.55003023 -0.11860562 0.2247788
0.59796011 -0.0756253 0.23642662
0.57446718 -0.063581936 0.21899918
0.56118143 -0.043194804 0.24140184
0.55426508 -0.12012142 0.25264055
0.54640871 -0.033889931 0.24997966
0.53013361 -0.044865128 0.21890382
0.53811681 -0.040023655 0.21609007
0.5526967 -0.036520924 0.2475917
0.56795621 -0.11384177 0.25468883
0.5245961 -0.11234459 0.25370836
0.57515651 -0.075092033 0.2447243
0.57774127 -0.078272037 0.25188965
0.57375044 -0.092321537 0.2556234
0.56020904 -0.039741661 0.25060368
0.52686471 -0.11246078 0.23066437
0.5206762 -0.046913609 0.25107679
0.56757432 -0.050188605 0.2224752
0.5805214 -0.10475215 0.25341886
0.57079709 -0.04977319 0.23143385
0.53999388 -0.042548116 0.22332464
0.56672859 -0.047097418 0.24461365
0.56774002 -0.048288569 0.24021548
0.57402414 -0.051742099 0.22370704
0.56676972 -0.04970143 0.22375667
0.57514179 -0.084643945 0.253914
0.60505593 -0.0868112 0.19919448
0.57266158 -0.044900119 0.25087199
0.56272113 -0.04713669 0.20993456
0.54750484 -0.11252563 0.25775397
0.54968274 -0.1173384 0.25084215
0.52912825 -0.11387748 0.25771716
0.53497553 -0.11684368 0.20714988
0.56362855 -0.045525163 0.22650628
0.50435627 -0.049077149 0.25297755
0.55824512 -0.040607721 0.24732049
0.58910459 -0.093818314 0.25400206
0.53375876 -0.11935115 0.25519517
0.5716238 -0.054214817 0.22438648
0.49882871 -0.056484729 0.25401852
0.57875061 -0.081343554 0.22172926
0.54625148 -0.03504625 0.24934174
0.60644138 -0.091014348 0.20647769
0.54965389 -0.042067241 0.22395132
0.50779653 -0.086276583 0.24572715
0.58037359 -0.074246779 0.25627506
0.56616694 -0.046252761 0.22090097
0.54512393 -0.11314226 0.25872794
0.54815751 -0.035011631 0.21918637
0.54571825 -0.11601773 0.25827861
0.55308592 -0.038735725 0.22803518
0.58615643 -0.093727812 0.25393501
0.60727334 -0.087108158 0.23793083
0.55872434 -0.11766469 0.20131078
0.57374275 -0.059478033 0.22163945
0.6077618 -0.088317357 0.20157684
0.52050602 -0.11009275 0.19743206
0.58113676 -0.050023198 0.25040078
0.57479089 -0.078355357 0.23264053
0.5796898 -0.067608252 0.25810012
0.56754303 -0.050114378 0.20220228
0.49496645 -0.076451935 0.254807
0.60470015 -0.078209475 0.23449989
0.5455904 -0.041615214 0.22921993
0.53658772 -0.11594184 0.20840798
0.53715861 -0.036698315 0.24968058
0.56154376 -0.040837973 0.24780324
0.50486469 -0.069140419 0.254751
0.58552235 -0.069530442 0.25036049
0.5737291 -0.057715908 0.22293292
0.51409954 -0.098709881 0.23596308
0.51142937 -0.099280179 0.2527754
0.49868986 -0.051245406 0.25374934
0.50681901 -0.10303947 0.25644186
0.57496208 -0.068676807 0.23310678
0.51214594 -0.095899209 0.23748957
0.56312531 -0.11524184 0.23730826
0.5601635 -0.044321343 0.22282548
0.56757933 -0.049548749 0.23242863
0.56941301 -0.053307101 0.2089743
0.53441173 -0.038848147 0.24828506
0.53564423 -0.041966472 0.21461691
0.55185962 -0.038889445 0.20883405
0.51713836 -0.037445612 0.25082716
0.56927288 -0.051419504 0.25091422
0.51181048 -0.09533105 0.24235336
0.52795857 -0.11555657 0.2016691
0.52695185 -0.030515216 0.25444436
0.50546157 -0.050484151 0.25253263
0.58558285 -0.068223432 0.24988653
0.57571924 -0.051380746 0.21891761
0.56484616 -0.046102107 0.22901246
0.57777095 -0.068001591 0.25271684
0.57428169 -0.062096775 0.21864177
0.57122254 -0.053330369 0.25190496
0.56560135 -0.045973852 0.22350723
0.53905845 -0.039515506 0.21662295
0.55172616 -0.035182294 0.2521207
0.52598155 -0.11383334 0.25233585
0.49578929 -0.068378665 0.25579235
0.52565539 -0.11530357 0.2539486
0.51866585 -0.10720144 0.25311875
0.51824588 -0.10840717 0.19983514
0.53531498 -0.029453551 0.25430426
0.51103604 -0.071322776 0.21969679
0.50369358 -0.070626363 0.2530838
0.57594496 -0.075202413 0.24642038
0.52683783 -0.11331887 0.24907939
0.57704276 -0.063961446 0.25530806
0.50327152 -0.061884545 0.24935773
0.51789963 -0.10629425 0.2049548
0.57179886 -0.092168756 0.25062567
0.57797587 -0.073288999 0.25569409
0.53965652 -0.11312504 0.25851181
0.56861645 -0.042679735 0.25565913
0.55136681 -0.11950848 0.22607619
0.57648289 -0.10600339 0.25435963
0.49497166 -0.077124745 0.25431314
0.57681823 -0.10904262 0.25534731
0.57461375 -0.077293508 0.24280764
0.5602777 -0.039249115 0.25100416
0.56603807 -0.11348639 0.24890797
0.50495774 -0.090195373 0.25432199
0.57073283 -0.11211792 0.2459847
0.50245118 -0.098647065 0.25598398
0.57097876 -0.091201656 0.2007989
0.51019061 -0.10681165 0.2568225
0.54022002 -0.029759023 0.25535956
0.5165053 -0.10824731 0.2521483
0.59524214 -0.077622086 0.23760098
0.49775922 -0.06291832 0.25411102
0.5664683 -0.046703618 0.23934829
0.53062022 -0.11432175 0.25683659
0.60370427 -0.077010117 0.23440573
0.57768428 -0.078522407 0.25438234
0.53919101 -0.037703868 0.24821125
0.56706059 -0.11491452 0.20482574
0.52232277 -0.11620151 0.25547585
0.55459666 -0.039642297 0.20974855
0.60940158 -0.086569965 0.19971536
0.51266128 -0.052273553 0.24915163
0.57832837 -0.11078855 0.25712833
0.56271881 -0.11550497 0.23765714
0.59572983 -0.077462941 0.23650515
0.57255012 -0.057610877 0.23050147
0.57165581 -0.059956111 0.2433712
0.55078608 -0.1208564 0.25365981
0.50264329 -0.046707232 0.25245273
0.50299835 -0.095992662 0.25688329
0.5453468 -0.036333699 0.20857622
0.49987233 -0.054544415 0.25465736
0.57249475 -0.053065237 0.25413817
0.57237232 -0.056378461 0.22589952
0.57156461 -0.047764447 0.25083452
0.56101125 -0.11627207 0.25418618
0.5486632 -0.040212341 0.24098429
0.50976855 -0.091311336 0.24439129
0.60878038 -0.08581575 0.23642763
0.56932002 -0.049315531 0.22539577
0.50783157 -0.090552844 0.2536391
0.57076377 -0.1110756 0.22999389
0.5074001 -0.069890201 0.24574699
0.57495397 -0.063301593 0.23977846
0.56807882 -0.045265671 0.25481549
0.57583642 -0.071431652 0.21394011
0.57227349 -0.045850322 0.21291482
0.54252231 -0.029224843 0.25563654
0.54871327 -0.033511762 0.25308946
0.56890595 -0.050319638 0.24205062
0.50018382 -0.095785499 0.25552434
0.5595237 -0.043129511 0.20982103
0.57826507 -0.072457425 0.25510925
0.57395327 -0.064276636 0.25206175
0.57143062 -0.09408626 0.25172055
0.57128155 -0.051731296 0.25176308
0.56782371 -0.048677217 0.23861949
0.57983834 -0.07194563 0.25633216
0.53022522 -0.11442204 0.25655037
0.57823318 -0.064686917 0.25541198
0.51550519 -0.10961237 0.25531676
0.5429641 -0.12103396 0.25187191
0.52945721 -0.043130361 0.21295013
0.54774666 -0.11769786 0.24426834
0.57637268 -0.082357273 0.21293329
0.57196367 -0.090577386 0.20178877
0.53696728 -0.1183008 0.25312111
0.5186736 -0.10754945 0.20800117
0.50675756 -0.086521164 0.25143135
0.57180464 -0.092921667 0.25007302
0.54810804 -0.11543187 0.2572867
0.53752095 -0.11516798 0.25856471
0.53781021 -0.11583928 0.25822455
0.57304251 -0.050965752 0.24950619
0.55218881 -0.039604831 0.25180671
0.53972399 -0.044426966 0.22595848
0.57822704 -0.063889153 0.25599757
0.51761258 -0.10474678 0.24609411
0.51087236 -0.095918424 0.2533206
0.51091164 -0.058175512 0.24517852
0.57801038 -0.08503744 0.25651845
0.53836417 -0.11830405 0.24742721
0.5664686 -0.047948141 0.22698963
0.57193804 -0.053622235 0.24936579
0.546345 -0.11813843 0.22223112
0.57407731 -0.055459015 0.25322121
0.53743434 -0.11276023 0.2589415
0.57465672 -0.073895283 0.2304446
0.54663587 -0.11846307 0.25034803
0.55094594 -0.10987002 0.25750059
0.575405 -0.083361983 0.24416922
0.55721438 -0.038346402 0.24731687
0.56955343 -0.04977813 0.25363061
0.53406864 -0.036633644 0.25102282
0.56497359 -0.041255169 0.25339982
0.55040896 -0.037706342 0.23465528
0.58916199 -0.091581181 0.25249627
0.60893577 -0.081155472 0.2320015
0.61195135 -0.08777453 0.20578706
0.53152931 -0.11484426 0.24425159
0.60030979 -0.086004406 0.19560382
0.55852616 -0.10895678 0.25818443
0.51301229 -0.1064361 0.255559
0.57731408 -0.10745537 0.2464397
0.51810211 -0.10930368 0.25272259
0.60263455 -0.088113636 0.1998232
0.56065148 -0.04337408 0.2353785
0.51486081 -0.1027778 0.24852084
0.5759598 -0.070425093 0.23641436
0.57407063 -0.073684998 0.23028502
0.57147503 -0.10974446 0.22625907
0.49628943 -0.063090637 0.2531943
0.51392478 -0.058535062 0.24120015
0.51797712 -0.10624389 0.24692868
0.56299186 -0.040941831 0.24985848
0.55952585 -0.042800799 0.21277289
0.51442897 -0.098150864 0.25295034
0.58882856 -0.087095633 0.25071365
0.55707598 -0.037686527 0.25043774
0.52807969 -0.11374196 0.25512192
0.54074103 -0.043045085 0.22333263
0.50824803 -0.085024588 0.25110596
0.56630141 -0.10266165 0.25888371
0.51706183 -0.036350649 0.25159436
0.56770396 -0.048575044 0.23186028
0.53113186 -0.03529451 0.23962113
0.5287829 -0.032822408 0.25237074
0.59668523 -0.083362885 0.23872684
0.57420623 -0.10913736 0.24888866
0.55533421 -0.043076828 0.23491853
0.51436216 -0.057627659 0.24156837
0.54523194 -0.1174726 0.2401039
0.53059024 -0.11482984 0.21407063
0.52081078 -0.10575256 0.25309676
0.55364352 -0.11895791 0.25361121
0.56909549 -0.1126435 0.24576223
0.55852926 -0.041616675 0.21346965
0.56274742 -0.11386011 0.24802144
0.5722875 -0.091566645 0.20394059
0.53744805 -0.11879263 0.25069225
0.57104945 -0.058497831 0.20466757
0.51891726 -0.045508962 0.25200602
0.57270426 -0.057620618 0.22786896
0.57627738 -0.066208825 0.25188386
0.55517048 -0.11024004 0.25814268
0.575984 -0.077047653 0.19633311
0.55445021 -0.034871545 0.2435023
0.55661058 -0.1114373 0.25803247
0.50752264 -0.079475038 0.24981371
0.52897316 -0.040223256 0.24600731
0.55150348 -0.037084702 0.23841022
0.55537832 -0.11899027 0.19980431
0.4950133 -0.071301207 0.25457218
0.5301044 -0.031270154 0.25287244
0.57183331 -0.11034337 0.23414531
0.53042251 -0.11523844 0.2131393
0.5248704 -0.11392441 0.20828521
0.57210821 -0.051086757 0.22282249
0.52172726 -0.040571693 0.25133917
0.50673223 -0.078699075 0.25061956
0.55716515 -0.041285239 0.21397766
0.55957592 -0.042820275 0.23547399
0.54553747 -0.035453606 0.23776354
0.57377619 -0.066655137 0.21500529
0.59495682 -0.079720311 0.23644345
0.53058469 -0.043666475 0.21536851
0.55761999 -0.1173125 0.20410004
0.52238983 -0.044874206 0.24843952
0.57788736 -0.076822825 0.25168389
0.56315291 -0.043247439 0.21383654
0.54714996 -0.035580952 0.24124385
0.53683823 -0.11568378 0.23615649
0.51333177 -0.098852307 0.24403098
0.5713675 -0.054639578 0.21987306
0.5696488 -0.052387878 0.22332011
0.54732782 -0.037115425 0.24513884
0.57239461 -0.092664093 0.25058007
0.551489 -0.039310437 0.22338068
0.51112741 -0.1061198 0.2578364
0.57009387 -0.11136461 0.24066469
0.56873477 -0.11204405 0.23150688
0.53199893 -0.042626396 0.21279825
0.54557395 -0.035248023 0.25012144
0.57564509 -0.069455072 0.23425324
0.57612604 -0.070710719 0.20379539
0.49950433 -0.095220596 0.25557634
0.57288361 -0.089074254 0.25213864
0.53682733 -0.036998924 0.24394251
0.49357578 -0.07559149 0.25334108
0.57168144 -0.11067466 0.23952574
0.56707114 -0.047812499 0.23749949
0.55414599 -0.040854391 0.2059036
0.54790241 -0.11813723 0.22920483
0.58447909 -0.09058094 0.25166938
0.57448912 -0.10859531 0.24586034
0.56064719 -0.11650732 0.20863603
0.54664326 -0.039011765 0.25124899
0.572914 -0.10852638 0.23757382
0.5607152 -0.11747821 0.21689332
0.56725013 -0.049672421 0.21591182
0.59167504 -0.068353541 0.25097197
0.56521016 -0.047819108 0.22430842
0.58082759 -0.076214075 0.25642076
0.56013393 -0.0394044 0.25081229
0.50453329 -0.062231369 0.25159308
0.54657346 -0.11950548 0.25376987
0.5458023 -0.11800034 0.21218124
0.60346091 -0.087233074 0.19888516
0.57810175 -0.10661598 0.24554551
0.5745731 -0.077980846 0.23144592
0.54846543 -0.041684892 0.20892142
0.51540691 -0.033427693 0.25286308
0.50510794 -0.065757796 0.25296354
0.53096664 -0.11525279 0.25633541
0.53342175 -0.11680959 0.21671259
0.57516128 -0.065889962 0.20548171
0.52236992 -0.10994361 0.24239479
0.50246108 -0.09992861 0.2550433
0.52793348 -0.1156652 0.25270995
0.5666796 -0.045282669 0.23787375
0.51667535 -0.037301868 0.25203863
0.5296185 -0.032724451 0.25289193
0.53623366 -0.029682554 0.25462872
0.58768934 -0.062103361 0.25148112
0.50466436 -0.090216592 0.25443277
0.55718595 -0.034267485 0.25572887
0.54004365 -0.11631353 0.2071691
0.51022232 -0.091541059 0.23543073
0.55815738 -0.10796583 0.25871786
0.50569493 -0.080907375 0.25220096
0.56166643 -0.11665171 0.22358112
0.51332045 -0.058579128 0.24267261
0.57389998 -0.057170089 0.24509257
0.52570677 -0.11421129 0.21448553
0.53938526 -0.038554218 0.24761148
0.50776988 -0.09295617 0.25525674
0.51304436 -0.058308117 0.24295406
0.57225746 -0.087908812 0.20797867
0.56465322 -0.044385739 0.23873025
0.49185899 -0.075059749 0.2528114
0.54289246 -0.1160057 0.19937143
0.51809418 -0.10721513 0.19783719
0.55843985 -0.04278136 0.21810102
0.51748979 -0.10362068 0.23138782
0.55624634 -0.043029733 0.22430381
0.56338966 -0.11478485 0.24071398
0.59321976 -0.088190459 0.24086416
0.51738888 -0.055938978 0.23883174
0.5217889 -0.1120294 0.25259504
0.56954044 -0.049212582 0.22268498
0.56884795 -0.093928471 0.23149285
0.52697456 -0.11186955 0.24296528
0.49614671 -0.060696688 0.25353074
0.55821759 -0.11533757 0.2483981
0.57663131 -0.060361207 0.25503659
0.52702844 -0.11283259 0.2499495
0.51944369 -0.036525968 0.25274444
0.58521974 -0.085404731 0.25202057
0.57630074 -0.10496552 0.23758292
0.51002133 -0.056236949 0.24922341
0.53277284 -0.046367757 0.22131255
0.54213637 -0.11475169 0.25864315
0.52657074 -0.1117816 0.24308056
0.56974739 -0.046842184 0.21720481
0.56174898 -0.040130414 0.24842227
0.54089546 -0.11688013 0.20717821
0.57505023 -0.083543047 0.24655311
0.54141217 -0.03663094 0.25192046
0.53313333 -0.035094891 0.23948956
0.53563708 -0.11606615 0.22673412
0.54989076 -0.11837412 0.21831571
0.58920193 -0.077941976 0.24866417
0.5386945 -0.11661934 0.22706062
0.56319529 -0.044251516 0.23262993
0.54945296 -0.035575796 0.24113071
0.55357605 -0.040215507 0.25161496
0.53864139 -0.033005778 0.25076079
0.56715775 -0.049750615 0.21174225
0.56251043 -0.04193281 0.24480619
0.59858471 -0.080824025 0.23877765
0.56348085 -0.045933254 0.21393915
0.49845731 -0.056885824 0.25352293
0.60924703 -0.089880832 0.20452169
0.52498251 -0.11267223 0.22396939
0.57408553 -0.065707423 0.24566036
0.53894907 -0.11591807 0.20100783
0.51835066 -0.10738856 0.24752602
0.54898113 -0.11871459 0.25332871
0.57282192 -0.05744534 0.24024807
0.57826376 -0.057410236 0.24586888
0.57988328 -0.077233903 0.25516069
0.57014519 -0.054826252 0.2082462
0.52129811 -0.11103337 0.21300188
0.5753119 -0.083249643 0.25368056
0.57255048 -0.045577362 0.2559295
0.57358354 -0.070588782 0.23095487
0.56109971 -0.11480322 0.24298406
0.53363979 -0.034966301 0.23985654
0.57768643 -0.066081829 0.25408858
0.51978314 -0.044590473 0.24864848
0.52124387 -0.032330267 0.25410053
0.57619882 -0.083502412 0.25532445
0.55329049 -0.11471421 0.25653815
0.54931778 -0.11811222 0.23494989
0.56962657 -0.052008759 0.24254484
0.55475122 -0.039553165 0.23697855
0.57362765 -0.070710033 0.22953501
0.5526315 -0.039385006 0.24892306
0.57691002 -0.060060237 0.25540847
0.58728105 -0.076056376 0.25062242
0.53278148 -0.046029903 0.22108515
0.52114755 -0.045059539 0.25133938
0.57406706 -0.086795844 0.24768597
0.57636994 -0.073050626 0.19813694
0.54280269 -0.11801342 0.2491495
0.58646154 -0.065839656 0.2509678
0.57138228 -0.059992708 0.20374289
0.57588762 -0.079148397 0.24212268
0.56502765 -0.11386719 0.25214216
0.56153291 -0.041722201 0.24172844
0.55605012 -0.045117635 0.22831836
0.58184201 -0.052167658 0.25004184
0.57855493 -0.055149157 0.25331688
0.49752602 -0.053347856 0.2529262
0.60333472 -0.083100438 0.23583031
0.53314984 -0.034782141 0.24108337
0.60799891 -0.090913944 0.20701595
0.54326046 -0.034403846 0.25099412
0.53682494 -0.11774746 0.24135035
0.53538162 -0.037230905 0.2421694
0.55142397 -0.12007236 0.25445193
0.5717926 -0.089252189 0.24465095
0.53608757 -0.029026266 0.25503469
0.57603157 -0.075914785 0.21615173
0.56913847 -0.050131317 0.23012799
0.54406101 -0.035855189 0.23802805
0.55047673 -0.035592284 0.24224982
0.56064749 -0.04343091 0.21291026
0.57808292 -0.078297183 0.2520546
0.55976254 -0.036186423 0.24917287
0.57787293 -0.084420212 0.25690025
0.5675624 -0.097493187 0.24983582
0.56759137 -0.11348314 0.2482384
0.58544993 -0.09287148 0.25235403
0.54596686 -0.11893567 0.21018186
0.52121633 -0.10906916 0.2257501
0.55093306 -0.037573289 0.235035
0.53085744 -0.11595515 0.2465497
0.54958427 -0.037089106 0.21841921
0.57414675 -0.061488245 0.23391314
0.50365645 -0.081288293 0.25407293
0.52357715 -0.032442614 0.25391689
0.54762453 -0.036117796 0.2370403
0.5452258 -0.040394761 0.21837696
0.57199258 -0.11335613 0.2564548
0.50605059 -0.10451221 0.25494194
0.54852563 -0.11731993 0.24750526
0.57220119 -0.061822277 0.21501869
0.52148372 -0.11090644 0.24850886
0.57892388 -0.10443614 0.24374907
0.57263279 -0.058047485 0.22886953
0.57652724 -0.078291714 0.24986896
0.56320369 -0.036498588 0.25596035
0.60893762 -0.087797746 0.20200157
0.50621897 -0.088813856 0.25338712
0.57393074 -0.062310971 0.23589791
0.57277972 -0.051648643 0.25398287
0.56636482 -0.043177936 0.21495834
0.53727221 -0.044963397 0.22609316
0.57940191 -0.10443942 0.25283691
0.54638278 -0.037693337 0.24394089
0.54434282 -0.12054221 0.25283453
0.56380439 -0.10620792 0.25763267
0.51297784 -0.10891882 0.25676423
0.57472044 -0.089404307 0.25694388
0.49405149 -0.07027556 0.25481266
0.49705476 -0.058926992 0.25397083
0.55301982 -0.034611627 0.24301928
0.56384027 -0.11552926 0.20279457
0.51287282 -0.096491605 0.25337252
0.57181215 -0.09292078 0.25143176
0.5880565 -0.086904094 0.25115582
0.53852886 -0.11792197 0.21525465
0.57469451 -0.10948648 0.25145793
0.49728605 -0.057519909 0.25377971
0.5629102 -0.045467366 0.22305433
0.53754556 -0.11740735 0.2140625
0.57270521 -0.055582266 0.24683689
0.55214894 -0.11219793 0.25778243
0.51829135 -0.045554224 0.25224236
0.57493609 -0.059932549 0.24631806
0.55950218 -0.044566572 0.20062426
0.56467772 -0.03628378 0.24953006
0.55149883 -0.036087096 0.24591443
0.56347048 -0.10312875 0.25837228
0.59193933 -0.076529041 0.24214818
0.54321748 -0.038658783 0.2168166
0.57538515 -0.063713409 0.23158176
0.59672982 -0.081570335 0.23879483
0.52185601 -0.11355999 0.2516346
0.57518458 -0.060766846 0.24014515
0.51103067 -0.099544071 0.25229028
0.5466069 -0.11925948 0.25390556
0.5655759 -0.11703017 0.25782254
0.51101875 -0.096299417 0.24588259
0.49696624 -0.063420951 0.25331402
0.54090846 -0.11693119 0.23523344
0.50698328 -0.093679696 0.25383487
0.57153773 -0.058608875 0.21432632
0.56762302 -0.11489417 0.20711848
0.54511774 -0.11689293 0.23849523
0.57301837 -0.083724409 0.23584935
0.53493494 -0.039447725 0.19294317
0.57120299 -0.091673411 0.25067127
0.53643113 -0.037984028 0.24986076
0.5741024 -0.04659174 0.25338635
0.54102963 -0.037789047 0.25285158
0.56836098 -0.049564287 0.22852047
0.54406685 -0.03704185 0.24977788
0.49367723 -0.073436938 0.25498605
0.51775986 -0.10688711 0.21050319
0.51467663 -0.10257903 0.24974231
0.52876562 -0.11515665 0.20742731
0.53388888 -0.12057153 0.25722116
0.5262292 -0.11128814 0.24035269
0.51442844 -0.057335097 0.24296308
0.55778497 -0.040206697 0.24980061
0.5676623 -0.049522068 0.25009567
0.5525822 -0.034257792 0.253263
0.54930115 -0.11905856 0.22666588
0.55249691 -0.11093455 0.25754791
0.60317576 -0.076788642 0.23476344
0.57793415 -0.074002072 0.25379124
0.57592952 -0.071313664 0.24115835
0.52257067 -0.044285536 0.22049581
0.51210785 -0.10324103 0.25207347
0.57099098 -0.051218074 0.25198582
0.54740059 -0.11920208 0.25360587
0.56610459 -0.045319844 0.21903616
0.60391498 -0.077514268 0.23400983
0.56353545 -0.043324616 0.24703749
0.53222698 -0.1162944 0.20669329
0.50298172 -0.078379229 0.25364015
0.51295221 -0.096451558 0.21457763
0.57410479 -0.051699303 0.24861155
0.57428598 -0.060652848 0.23731275
0.56785303 -0.11786314 0.25739557
0.57516778 -0.083111577 0.2482888
0.51048499 -0.092829339 0.21578752
0.57370609 -0.088501118 0.25029546
0.55429059 -0.039870314 0.20806175
0.51633531 -0.10432699 0.20814639
0.56374627 -0.10662439 0.25729403
0.50742793 -0.088003725 0.24957693
0.49694997 -0.061316013 0.25485912
0.60306001 -0.078243449 0.23514616
0.57338989 -0.055657204 0.24999753
0.52769309 -0.11264121 0.23042789
0.51286042 -0.061542299 0.23857304
0.57632589 -0.07945472 0.22046705
0.56496912 -0.044860162 0.24125786
0.56505328 -0.048459791 0.19937816
0.52068442 -0.046593104 0.25086108
0.52891171 -0.033667613 0.24098356
0.56623751 -0.044993348 0.23659824
0.51617652 -0.10604056 0.25238642
0.57293773 -0.056659445 0.24359855
0.56944889 -0.039613854 0.25046813
0.55625319 -0.041379645 0.20664778
0.61043036 -0.090138577 0.20418388
0.53593206 -0.043658465 0.21816136
0.57244992 -0.063798949 0.21369314
0.55964148 -0.1169875 0.23104328
0.57695919 -0.079831287 0.21917517
0.50752336 -0.065865561 0.25187948
0.58580852 -0.093007445 0.25360757
0.56873769 -0.051230203 0.21826907
0.57627988 -0.060335334 0.25486687
0.52771211 -0.042771176 0.21218823
0.57232875 -0.045196209 0.25083199
0.52586985 -0.11149043 0.23809317
0.58623147 -0.081405632 0.25029612
0.50973266 -0.092710227 0.24533287
0.54853457 -0.11697204 0.24727111
0.51334941 -0.09981557 0.2523917
0.57900691 -0.074146181 0.25561517
0.53413129 -0.11720045 0.24978934
0.59803963 -0.088399395 0.24020541
0.5361852 -0.11744797 0.25751817
0.56879276 -0.1120484 0.22511505
0.50004172 -0.098341636 0.25491518
0.53166145 -0.11598638 0.22329374
0.57160115 -0.057807256 0.2095359
0.51842213 -0.10514457 0.24091381
0.53967637 -0.043938581 0.22820351
0.5071395 -0.088476218 0.25320464
0.51964676 -0.048779685 0.2447287
0.55567199 -0.033826876 0.25524083
0.52451891 -0.04298006 0.24869539
0.54119843 -0.032705996 0.25235566
0.52593726 -0.034141298 0.25257668
0.56664085 -0.049351078 0.20905146
0.51797092 -0.032463837 0.25359783
0.54818803 -0.040954873 0.21754873
0.56423593 -0.10140251 0.25734961
0.51231921 -0.095004171 0.22535694
0.56765842 -0.048750557 0.24118471
0.56473351 -0.11488876 0.23638348
0.57464814 -0.08407364 0.24188325
0.54411429 -0.11691974 0.20327343
0.52302712 -0.040187657 0.25102496
0.56511188 -0.046581253 0.22794157
0.51698381 -0.052515872 0.24606504
0.57504582 -0.068731785 0.21550845
0.60510457 -0.085823506 0.19724567
0.53926522 -0.03460997 0.25130868
0.57843268 -0.10319733 0.23931809
0.59353131 -0.076984078 0.23713279
0.57196391 -0.051259514 0.24853764
0.53420848 -0.044005513 0.21785775
0.57467055 -0.050742086 0.2202193
0.53586596 -0.03446126 0.24954954
0.56621861 -0.045620579 0.25355425
0.5067687 -0.076856636 0.24799289
0.57437444 -0.077394523 0.24125046
0.53675663 -0.11830742 0.24812019
0.5320226 -0.035841037 0.25112376
0.56533766 -0.10632078 0.25837299
0.50004095 -0.052812506 0.25467235
0.57612407 -0.050800137 0.24955225
0.5578261 -0.11966622 0.25780192
0.57364458 -0.059519339 0.23915899
0.55014497 -0.11938198 0.20231232
0.51809782 -0.050935164 0.24406907
0.57120633 -0.053915575 0.22032091
0.51455849 -0.10140684 0.21462023
0.50724673 -0.049094252 0.25180945
0.52710801 -0.032750204 0.2528784
0.57770497 -0.073581576 0.25533259
0.57840109 -0.062098894 0.25470451
0.54949188 -0.035953537 0.24244507
0.54486549 -0.034948632 0.21746449
0.54825366 -0.11833416 0.2240885
0.52506554 -0.028946983 0.25458875
0.51571262 -0.11140253 0.25639981
0.57503819 -0.063298047 0.25201285
0.58155364 -0.072071888 0.2571604
0.56918156 -0.092371225 0.23282161
0.57752043 -0.079883337 0.22079232
0.54637814 -0.034028158 0.25280795
0.57101679 -0.054052625 0.23230447
0.51079488 -0.052195739 0.2499021
0.5171268 -0.10518295 0.21092087
0.56174332 -0.043292359 0.23485525
0.53055125 -0.037613321 0.24942032
0.57163233 -0.055344343 0.24116001
0.57009745 -0.11098046 0.23276508
0.56151712 -0.036232129 0.25660515
0.57006294 -0.051537514 0.24312711
0.5593487 -0.11769997 0.22781894
0.54270893 -0.11589079 0.20192213
0.57508183 -0.10682409 0.25445056
0.60910547 -0.087507218 0.23740782
0.56672615 -0.048182908 0.24787325
0.51630253 -0.10096774 0.23268948
0.52276337 -0.11093529 0.25285047
0.56468856 -0.11527003 0.25449058
0.53126872 -0.034313232 0.240419
0.57485908 -0.076465741 0.24219638
0.58058429 -0.10618637 0.25251892
0.57717359 -0.10508011 0.22964005
0.57426101 -0.085973531 0.2118376
0.52213705 -0.032552913 0.25441596
0.53081071 -0.032122653 0.25262254
0.56891704 -0.093762591 0.24790111
0.55404866 -0.037435669 0.24222645
0.57144958 -0.057347186 0.21521033
0.51823509 -0.10823116 0.21755861
0.57329977 -0.061719213 0.24035984
0.56007946 -0.040735465 0.24573825
0.57006216 -0.053979758 0.21018052
0.54555464 -0.033379219 0.25065079
0.5168851 -0.10158683 0.2392188
0.51010162 -0.090468571 0.2385944
0.58670402 -0.063209623 0.25122282
0.5498147 -0.10937946 0.25725505
0.52426565 -0.11005844 0.23783438
0.50815439 -0.063882478 0.25240427
0.54193193 -0.1217644 0.25582895
0.57351398 -0.088616647 0.24739885
0.54843634 -0.11731625 0.24244538
0.53279632 -0.11650619 0.20404094
0.56013113 -0.043466076 0.2112529
0.55959082 -0.043758206 0.22334902
0.55032545 -0.038348567 0.20976326
0.57163578 -0.062541761 0.20064329
0.55082822 -0.10999712 0.25734353
0.54140681 -0.032070681 0.25293657
0.54107004 -0.034485847 0.25097281
0.5712803 -0.055720892 0.21631989
0.5630191 -0.043553814 0.23982066
0.50920045 -0.088327169 0.25242642
0.57530278 -0.071372725 0.23942405
0.565579 -0.046261728 0.22880325
0.56361926 -0.10605405 0.25764683
0.58491117 -0.064115524 0.25142705
0.53657228 -0.036452584 0.25007746
0.55036873 -0.11867442 0.22850075
0.57112771 -0.11186234 0.24564582
0.56155646 -0.11463095 0.24904351
0.57576102 -0.046918824 0.24958017
0.56362176 -0.044644099 0.227153
0.57669723 -0.075464755 0.2181956
0.57655704 -0.076544382 0.1956584
0.57910091 -0.057617918 0.24538942
0.52143103 -0.0471575 0.24371986
0.49834737 -0.058166709 0.25387236
0.55097973 -0.039376076 0.20800218
0.54619282 -0.039032452 0.24763438
0.57969648 -0.10417739 0.25287229
0.51398003 -0.10776328 0.2522634
0.53583378 -0.11586976 0.25849444
0.52823061 -0.11419758 0.25699866
0.52767211 -0.11717312 0.25509453
0.55985594 -0.11602043 0.25451601
0.54213029 -0.11788493 0.24680547
0.51547235 -0.10104664 0.2381942
0.57827312 -0.10611372 0.25353763
0.53049076 -0.11374312 0.23250322
0.57005137 -0.050165251 0.25225827
0.50507784 -0.084969163 0.2523995
0.52552122 -0.11619481 0.2540971
0.51225245 -0.059529297 0.24254426
0.52929151 -0.11703362 0.25385076
0.57529867 -0.085322469 0.25620547
0.49961591 -0.095100082 0.25572523
0.54306215 -0.12225427 0.2510874
0.52584279 -0.040904969 0.24870053
0.54274535 -0.12089757 0.25490549
0.56087297 -0.04418033 0.22052968
0.50671571 -0.069512136 0.22262113
0.52313513 -0.11052202 0.24499683
0.59208608 -0.088924199 0.24183705
0.56961077 -0.049469583 0.22409886
0.56125683 -0.039327201 0.24911895
0.57526255 -0.06906233 0.21402678
0.55582094 -0.11870379 0.19942445
0.54779905 -0.035928812 0.24566279
0.57584292 -0.069347642 0.24256314
0.56941736 -0.11142287 0.22825442
0.56939864 -0.050985258 0.24317795
0.55582732 -0.040536739 0.20839529
0.53780669 -0.12247165 0.25679576
0.52052176 -0.10730828 0.23125249
0.52439404 -0.11038449 0.24181694
0.57544631 -0.090502247 0.25652331
0.55128771 -0.11629962 0.24946479
0.52786827 -0.032329705 0.2535972
0.55129576 -0.037246954 0.23682477
0.54903048 -0.03997463 0.2406691
0.56537968 -0.048107259 0.19981375
0.58064449 -0.073954202 0.25663656
0.50834507 -0.104647 0.25742903
0.50574428 -0.094305761 0.25397602
0.57461196 -0.083077379 0.23989114
0.57043403 -0.093412489 0.23272574
0.50750291 -0.088064514 0.25213286
0.51261687 -0.048229504 0.25176123
0.57645184 -0.076405115 0.24715891
0.50716031 -0.10395668 0.25594813
0.53749377 -0.11602145 0.20042762
0.54186922 -0.11689974 0.23989558
0.54453087 -0.11805522 0.24588671
0.5810523 -0.10242589 0.24659942
0.54933476 -0.038668286 0.22841342
0.51753408 -0.10794381 0.25079241
0.55609125 -0.11871592 0.25537029
0.57455987 -0.079370871 0.24124521
0.57844901 -0.066004433 0.25726345
0.5750165 -0.061974145 0.24079195
0.57551795 -0.080341332 0.24510567
0.55047238 -0.038712136 0.24558346
0.51939303 -0.04547514 0.24940182
0.54814547 -0.12060959 0.25494239
0.57190794 -0.048041653 0.21579663
0.49912125 -0.096608341 0.25434613
0.57493812 -0.06305147 0.23860052
0.54852223 -0.041477021 0.23423845
0.50497085 -0.059987053 0.24991921
0.57633913 -0.076458074 0.21591592
0.57575601 -0.085175052 0.2552059
0.56073713 -0.040444307 0.24766055
0.51898313 -0.10809837 0.20440975
0.53214788 -0.11541525 0.22652847
0.57289284 -0.059063252 0.22148912
0.5278163 -0.11467448 0.22025552
0.572469 -0.087043032 0.2100855
0.57209712 -0.043503698 0.25071591
0.57312226 -0.062011436 0.21808195
0.55285037 -0.11757066 0.24071717
0.55549526 -0.041382741 0.23882355
0.56953573 -0.053082086 0.21733069
0.57219607 -0.092498988 0.25059527
0.50407046 -0.10054322 0.25680813
0.58616215 -0.08632987 0.25105977
0.53387415 -0.034673136 0.24967727
0.55681819 -0.040311608 0.21079293
0.57998842 -0.048970409 0.25028163
0.60648435 -0.090411969 0.20478648
0.60843879 -0.084768951 0.23588136
0.57624203 -0.070689075 0.24855763
0.57454914 -0.066712029 0.21537851
0.52808857 -0.11346008 0.23080012
0.5679664 -0.052015528 0.20102629
0.53194553 -0.11618371 0.20801488
0.5695681 -0.051706485 0.23325816
0.54521984 -0.041534498 0.22932571
0.57283038 -0.11081035 0.24676564
0.54009581 -0.11570543 0.20292224
0.56386131 -0.046405204 0.21244104
0.57471251 -0.058659758 0.24578342
0.56798583 -0.11278372 0.23359236
0.51659262 -0.10580979 0.25105801
0.57535678 -0.077568442 0.21050641
0.53576589 -0.033037167 0.25190112
0.54925483 -0.11830067 0.23000591
0.59124225 -0.074249275 0.24880834
0.50566518 -0.067639031 0.25341302
0.52828866 -0.11439444 0.21349739
0.51143926 -0.10574365 0.25577646
0.53413337 -0.11771508 0.24375936
0.57040817 -0.057776112 0.20620991
0.57340461 -0.061433621 0.23355481
0.54027987 -0.03396222 0.25127533
0.57513791 -0.066105224 0.23374549
0.57171112 -0.055350322 0.24526012
0.50632924 -0.10453272 0.2550765
0.49551639 -0.074518189 0.25517583
0.56770962 -0.049552593 0.24874449
0.5572626 -0.10949506 0.2584624
0.56126374 -0.042835947 0.21437587
0.57068133 -0.047828324 0.25116804
0.54945487 -0.12033396 0.25547123
0.52864414 -0.11560407 0.22051524
0.5682779 -0.050704073 0.23872133
0.57612431 -0.077296726 0.21382737
0.57559913 -0.078303218 0.21280231
0.52552009 -0.11430489 0.25461388
0.52667654 -0.030812593 0.25407693
0.57367545 -0.088262551 0.25587133
0.51279992 -0.097027652 0.25307682
0.56382328 -0.1142926 0.24657151
0.54160357 -0.11649935 0.23337488
0.55833381 -0.040468484 0.24093546
0.51479083 -0.032915488 0.25291023
0.53362447 -0.11531906 0.25771418
0.57039034 -0.053411562 0.22160874
0.56976795 -0.093223237 0.24875635
0.50765818 -0.068427451 0.2477735
0.57706636 -0.10547478 0.23759112
0.51827919 -0.054121494 0.24080765
0.55408406 -0.037122551 0.24789281
0.57954198 -0.069099613 0.2582739
0.53366143 -0.11807282 0.25705528
0.5277167 -0.11275105 0.23686025
0.57705414 -0.074030951 0.25194317
0.57578802 -0.080326781 0.24390741
0.54491341 -0.11771305 0.25794888
0.57838351 -0.066474162 0.25688154
0.61167461 -0.080266699 0.22641437
0.57326132 -0.063734286 0.21553083
0.57690996 -0.082295872 0.25524306
0.6054185 -0.088300563 0.20002472
0.56674522 -0.11437816 0.22116753
0.53510201 -0.029276492 0.25432056
0.57478094 -0.067670964 0.21073298
0.51192188 -0.094935827 0.23057824
0.57448268 -0.059610203 0.25308275
0.49297142 -0.069377623 0.25489533
0.52911925 -0.031252552 0.25371027
0.51551384 -0.056084748 0.24202242
0.57067478 -0.041887838 0.2510553
0.55442065 -0.039752938 0.21498856
0.51412958 -0.10735518 0.25853714
0.52801853 -0.045202728 0.21621428
0.57980293 -0.10624287 0.25281394
0.57130617 -0.060538501 0.20329911
0.57739353 -0.077465139 0.2522985
0.58886755 -0.070851207 0.25063458
0.52988541 -0.046470486 0.22134727
0.56547374 -0.11411052 0.24701577
0.53808945 -0.11520982 0.25883919
0.589643 -0.065636471 0.25099456
0.51507282 -0.11092125 0.25636908
0.54816306 -0.1165475 0.25784677
0.5221988 -0.04406758 0.25025579
0.55438828 -0.042625025 0.22483423
0.58989125 -0.078157164 0.24699801
0.50813758 -0.088444404 0.24701586
0.57939994 -0.068461552 0.25866857
0.57033563 -0.049858283 0.25263757
0.6039052 -0.075195357 0.23418178
0.57846677 -0.069723807 0.25588149
0.56209463 -0.037588999 0.2498243
0.57803023 -0.065086164 0.25636229
0.57361615 -0.065936342 0.21544993
0.51880753 -0.1129741 0.25484955
0.53737861 -0.03519012 0.24847002
0.51916105 -0.10721064 0.24706002
0.55907369 -0.036799233 0.24909009
0.55721211 -0.033938084 0.24912855
0.50707853 -0.10569498 0.25597507
0.5635705 -0.039238911 0.24944168
0.57471764 -0.058708012 0.25252083
0.57511353 -0.08129251 0.24554034
0.5480141 -0.11850198 0.22175461
0.60493952 -0.076141685 0.23441377
0.57970411 -0.10696941 0.25241312
0.51042652 -0.066210799 0.22306706
0.5520575 -0.038392644 0.21743141
0.49720538 -0.052603796 0.25330323
0.57517052 -0.085664615 0.25046784
0.55892235 -0.040986642 0.23274472
0.51141435 -0.096145563 0.25295377
0.54792607 -0.11821899 0.23816648
0.59030712 -0.088394232 0.24734637
0.52965057 -0.036190767 0.23951788
0.56040609 -0.11704783 0.25750771
0.54668796 -0.034811452 0.24968809
0.5546456 -0.034439195 0.24617215
0.60185665 -0.082183123 0.23827155
0.57102007 -0.060000446 0.1994804
0.57315147 -0.089547381 0.25193331
0.56287897 -0.10543856 0.25770351
0.5335024 -0.035951387 0.23905557
0.5715701 -0.060707621 0.2155025
0.56357771 -0.038178369 0.25492126
0.50000226 -0.055127781 0.25429651
0.55155545 -0.11901802 0.20783505
0.51484281 -0.10347907 0.24899286
0.54881603 -0.039464429 0.24806722
0.57541835 -0.08331494 0.24962737
0.55546117 -0.11795671 0.22201557
0.54112369 -0.043764804 0.23001444
0.57291412 -0.056383777 0.24243531
0.50258148 -0.10247269 0.25458398
0.54937536 -0.041517843 0.20969376
0.50441223 -0.076615222 0.25411129
0.56639642 -0.039670862 0.24923153
0.5124867 -0.058061603 0.24458379
0.55052882 -0.041488785 0.23847985
0.5742417 -0.061265357 0.25037739
0.53278857 -0.03475555 0.24090894
0.57808149 -0.073318869 0.25302067
0.51146472 -0.098451138 0.25277287
0.5642572 -0.046261847 0.24593271
0.57468182 -0.06389375 0.21753021
0.53367412 -0.114907 0.23445386
0.57560754 -0.068888865 0.2062158
0.50705969 -0.10535113 0.25486472
0.5909884 -0.090481907 0.24843581
0.5951649 -0.075566798 0.2376408
0.58926505 -0.081480309 0.24648266
0.50980359 -0.061735984 0.24347733
0.50934309 -0.09444198 0.24919471
0.53526199 -0.041811772 0.25289735
0.57476437 -0.068668373 0.2465474
0.57966024 -0.049262371 0.2502422
0.55126339 -0.11924059 0.22466932
0.57960844 -0.05280653 0.24935009
0.59174186 -0.08833155 0.24286652
0.54904109 -0.037887715 0.20941354
0.57743931 -0.058859527 0.25522509
0.54969949 -0.03738784 0.23526174
0.53459519 -0.11655477 0.25732344
0.60460418 -0.079222381 0.23516792
0.56779116 -0.050443277 0.21834151
0.54154736 -0.12133264 0.25570831
0.57357144 -0.086232945 0.24241903
0.56341457 -0.11639173 0.21756202
0.52839768 -0.1156522 0.20154375
0.56811255 -0.048039034 0.25414038
0.5543319 -0.040889412 0.21861355
0.51490575 -0.099506922 0.22850059
0.56159806 -0.03739018 0.25579375
0.50450391 -0.08257778 0.24978893
0.58547252 -0.089490563 0.24887562
0.54015791 -0.037130076 0.2493975
0.55898345 -0.044825129 0.23068614
0.56835043 -0.049397379 0.23837082
0.55009341 -0.11823241 0.21558689
0.56859547 -0.052803293 0.20755303
0.53691828 -0.11592713 0.19933853
0.54290402 -0.11756515 0.25697866
0.54272884 -0.035588071 0.23750967
0.51815313 -0.03674221 0.25189152
0.54640263 -0.035119619 0.24930732
0.57259601 -0.054987341 0.24871153
0.59083003 -0.073263042 0.24958278
0.54562151 -0.041651338 0.22286072
0.57941204 -0.070031449 0.25751621
0.5750221 -0.051362846 0.2484297
0.50965899 -0.10123558 0.25183848
0.51549232 -0.10119087 0.2280895
0.50957376 -0.10587864 0.25717989
0.57759786 -0.10996832 0.25689918
0.55689532 -0.039918549 0.22446416
0.56597209 -0.043757185 0.21551059
0.51015389 -0.047900446 0.25019017
0.51868856 -0.10438903 0.23392934
0.53134918 -0.1160018 0.25485602
0.51046598 -0.093570784 0.21628657
0.50255853 -0.052543286 0.2548694
0.52370554 -0.046667572 0.24181478
0.53901678 -0.029832482 0.25465897
0.52373266 -0.041933089 0.250909
0.55091143 -0.11900408 0.20555463
0.54731697 -0.11817271 0.21419244
0.57543719 -0.072257251 0.24019735
0.51251477 -0.10335476 0.25500664
0.56987023 -0.092328593 0.24811766
0.52956164 -0.033471633 0.25095576
0.50445652 -0.06522274 0.25360656
0.54049343 -0.033467419 0.25141487
0.5736202 -0.066647559 0.24742453
0.57528478 -0.067292891 0.2018043
0.52341503 -0.044268705 0.2496205
0.53345376 -0.11517713 0.25772727
0.58735234 -0.086212881 0.25187367
0.55091161 -0.04072823 0.20561336
0.54243082 -0.12107252 0.25207329
0.50215399 -0.095930509 0.2564756
0.52109265 -0.11138043 0.19930647
0.51125693 -0.10853855 0.2561205
0.57837039 -0.050938576 0.25188246
0.57277018 -0.091484085 0.2502988
0.58199418 -0.098236829 0.24596916
0.53005123 -0.11769133 0.25441533
0.5710941 -0.091358311 0.24813724
0.56592757 -0.099716276 0.25679496
0.57365727 -0.061712392 0.23213074
0.57460815 -0.086990014 0.24783331
0.55492318 -0.037120726 0.23571083
0.50821769 -0.085321546 0.24491389
0.49449494 -0.076282747 0.25467861
0.57721233 -0.054535754 0.2480628
0.55366772 -0.11704165 0.24001575
0.56989658 -0.04867835 0.25327271
0.50515693 -0.10419155 0.2546986
0.52968234 -0.11639425 0.19766112
0.52380365 -0.11354057 0.25180387
0.58617568 -0.087040111 0.25186601
0.52836692 -0.1143529 0.25165486
0.58649123 -0.075860433 0.25107479
0.5706104 -0.11227933 0.25123999
0.55531853 -0.03940969 0.23874326
0.55778092 -0.11749469 0.2551097
0.51104659 -0.050976418 0.25199485
0.56290436 -0.041432839 0.25080308
0.51023883 -0.089813456 0.25232789
0.56358123 -0.043531831 0.23931989
0.50497937 -0.059654679 0.24969549
0.5226714 -0.11190325 0.21680962
0.55059284 -0.11025133 0.25702944
0.57251209 -0.045999005 0.25026575
0.52334607 -0.046987385 0.24177158
0.58174628 -0.075129114 0.2563611
0.59852797 -0.080932707 0.19313224
0.55615151 -0.040310204 0.25184497
0.51510125 -0.10086409 0.24587654
0.57553613 -0.083498858 0.21299528
0.51010716 -0.06022875 0.25296804
0.56444991 -0.038903464 0.2548545
0.58746576 -0.087460048 0.25177065
0.57478452 -0.077531964 0.23324494
0.55797631 -0.037283547 0.24676892
0.50060678 -0.099023633 0.25471526
0.51411241 -0.057357956 0.2430824
0.55673784 -0.040025208 0.23905133
0.57413739 -0.084796526 0.23836717
0.57125455 -0.060150295 0.21574441
0.55089533 -0.11621416 0.24957682
0.56928492 -0.053421572 0.20069665
0.55450475 -0.037478369 0.2465021
0.5726788 -0.090412512 0.24968667
0.57007957 -0.11167808 0.23323463
0.57553357 -0.068410151 0.20111319
0.50353312 -0.065592676 0.25248364
0.54652715 -0.039585732 0.22157171
0.55538905 -0.03890384 0.23915458
0.57003099 -0.11118361 0.23929793
0.57497531 -0.064627208 0.24151948
0.51415694 -0.035721693 0.2518523
0.56344628 -0.046579126 0.22156814
0.50663841 -0.083271556 0.25160781
0.54698914 -0.11966538 0.25481415
0.56423348 -0.11471344 0.25304368
0.53317422 -0.045775704 0.22074811
0.56184244 -0.043550521 0.24517521
0.57503802 -0.072665595 0.24238962
0.55341119 -0.12066656 0.25266859
0.57797998 -0.10972099 0.25657123
0.50478411 -0.088646553 0.25409403
0.51045287 -0.091125928 0.23633076
0.5728758 -0.073892429 0.22813596
0.57591653 -0.073706031 0.21095012
0.50713068 -0.092596129 0.25443265
0.55189073 -0.12167919 0.25658914
0.57381618 -0.10813519 0.23055741
0.56131721 -0.1158739 0.25251713
0.51490092 -0.10717539 0.25223315
0.57637227 -0.071816258 0.20311154
0.57161492 -0.10914543 0.22835025
0.57461822 -0.068012089 0.24695337
0.5482887 -0.12215316 0.2526786
0.55374491 -0.038101424 0.23886371
0.510867 -0.062551208 0.24004355
0.49790779 -0.05756567 0.25407991
0.57486349 -0.10901568 0.24597779
0.51175892 -0.1089559 0.25608209
0.5672096 -0.040924076 0.25484535
0.57005161 -0.052711017 0.22736017
0.57522386 -0.084984116 0.255061
0.57296067 -0.054333922 0.25616005
0.55357027 -0.11270791 0.25816947
0.55903608 -0.041235495 0.22991402
0.57062328 -0.11112658 0.23518379
0.57336515 -0.091244347 0.25485757
0.57888865 -0.070857644 0.25527114
0.55984908 -0.043766022 0.22306651
0.57441646 -0.086671486 0.21140586
0.5574196 -0.11713428 0.21298583
0.57585663 -0.075143568 0.24506235
0.53048295 -0.11480753 0.24595082
0.5672459 -0.048194222 0.23189534
0.51372844 -0.10115789 0.2504828
0.56827497 -0.091355398 0.23308447
0.60199511 -0.074812204 0.23522049
0.57251567 -0.091756351 0.20392312
0.56406283 -0.047269251 0.22274397
0.52172965 -0.042945184 0.25113717
0.5551098 -0.11697859 0.24699809
0.56735069 -0.11345375 0.23048702
0.57391071 -0.067507334 0.21309446
0.49949926 -0.054947309 0.25415954
0.56420892 -0.045863427 0.23040219
0.54055446 -0.032170609 0.25240496
0.5439589 -0.03499322 0.25079602
0.50057846 -0.056756333 0.25475794
0.55263966 -0.042822827 0.22699049
0.57382035 -0.064254597 0.2032605
0.51508558 -0.10011999 0.23519902
0.53467607 -0.028922375 0.25435317
0.5420025 -0.11270998 0.25872436
0.55968517 -0.03675501 0.2488592
0.50987834 -0.097895563 0.25252518
0.5763815 -0.080792673 0.25336072
0.5781728 -0.10756291 0.24868982
0.57489663 -0.071686685 0.21189293
0.544945 -0.037787721 0.23080058
0.57274503 -0.055656653 0.24829751
0.57482255 -0.065123484 0.23836295
0.53158569 -0.11623397 0.25461489
0.57711422 -0.10823439 0.25213715
0.52524602 -0.046238236 0.22063908
0.55181885 -0.11908614 0.23069817
0.53555667 -0.043236956 0.2180436
0.5362801 -0.037077338 0.2455035
0.54377097 -0.11675365 0.23770778
0.52126533 -0.10772808 0.23630676
0.5255366 -0.04296691 0.21452652
0.5403111 -0.11558484 0.25840172
0.5671519 -0.04585322 0.25388384
0.56377065 -0.044460878 0.23955478
0.59863418 -0.078895517 0.23747958
0.57688022 -0.062730953 0.25477505
0.56558466 -0.046625815 0.22394606
0.52391881 -0.11160422 0.22499333
0.54777479 -0.11786321 0.24054384
0.53911185 -0.038285859 0.24789017
0.56115073 -0.1152294 0.24961407
0.5103448 -0.10038983 0.25206438
0.57560343 -0.10047812 0.22471997
0.58704513 -0.07859306 0.25042149
0.60184842 -0.082504533 0.23848788
0.556472 -0.11738496 0.21228503
0.50451624 -0.062896118 0.25204054
0.562949 -0.043763515 0.21681374
0.53700304 -0.038082588 0.24765871
0.56990916 -0.053142913 0.23915136
0.56129622 -0.035319518 0.25029862
0.56373543 -0.10522111 0.25832412
0.52763039 -0.11592636 0.19950703
0.53441608 -0.044431586 0.2167767
0.57541192 -0.068989314 0.24259613
0.52563179 -0.041685093 0.24777037
0.55274779 -0.1179761 0.21555059
0.54910016 -0.0396185 0.24422523
0.57670659 -0.077648386 0.19627781
0.57095993 -0.058277357 0.21561471
0.57797265 -0.1029575 0.22661743
0.59994179 -0.075481988 0.23567834
0.57193732 -0.088637955 0.24382807
0.54867429 -0.12016394 0.25569406
0.56275094 -0.11654411 0.2141262
0.53148675 -0.034494508 0.24040231
0.50422657 -0.064975739 0.25256696
0.53943789 -0.12073341 0.25494403
0.53785115 -0.12073673 0.25562799
0.52437371 -0.11355031 0.20442905
0.56780171 -0.046978042 0.23978803
0.51984465 -0.11162046 0.25223377
0.56955725 -0.048558794 0.22224492
0.5739162 -0.060453031 0.2345535
0.57362849 -0.08015085 0.23475288
0.57288772 -0.055502571 0.24848789
0.57610089 -0.059083778 0.25434059
0.56033909 -0.039592244 0.25213787
0.51516765 -0.10302513 0.20269038
0.57612067 -0.052953795 0.24824207
0.57691622 -0.060864404 0.25481817
0.52429432 -0.045387078 0.21921055
0.57893914 -0.10739466 0.24824916
0.59226739 -0.082725681 0.24020323
0.56747943 -0.11296502 0.22501229
0.57303661 -0.056718923 0.24631587
0.54714584 -0.039807517 0.21716316
0.57085145 -0.045303043 0.2513898
0.50889087 -0.090004168 0.24772485
0.54730737 -0.11854526 0.21444319
0.57596993 -0.084801272 0.25153458
0.57354045 -0.10863052 0.24246943
0.51473242 -0.03415614 0.25196302
0.51424527 -0.11135648 0.25699964
0.52032351 -0.11020528 0.25307935
0.57145512 -0.06076305 0.21675391
0.54625815 -0.11777909 0.22967422
0.54908544 -0.11821334 0.25474209
0.57532448 -0.064161398 0.23934279
0.61084157 -0.088053063 0.20390041
0.56952745 -0.092396677 0.23298861
0.52404034 -0.11270954 0.249878
0.54006666 -0.042341389 0.22060858
0.51317853 -0.061519295 0.23845293
0.5022341 -0.099527664 0.25521731
0.53322899 -0.033334583 0.25031883
0.52724177 -0.11536942 0.20312713
0.5220387 -0.1121114 0.20957553
0.57348198 -0.0895717 0.25209287
0.54517323 -0.12023761 0.2526699
0.54449356 -0.030296752 0.2545501
0.52377015 -0.11248852 0.20908125
0.54077053 -0.11707153 0.22646794
0.50603884 -0.099295385 0.25743261
0.49363175 -0.075190231 0.25366735
0.57378036 -0.059861057 0.22814724
0.54785359 -0.036244456 0.21811305
0.55112982 -0.12082477 0.25635043
0.5748508 -0.047459178 0.24854328
0.51448369 -0.10044344 0.24204154
0.5537324 -0.11797895 0.20621173
0.57543868 -0.082340628 0.25441965
0.57920879 -0.077962354 0.25426063
0.56747282 -0.051605202 0.20106407
0.54821134 -0.11311302 0.25769988
0.57513899 -0.058252957 0.25308308
0.55267096 -0.036507659 0.24623358
0.57314831 -0.088054195 0.25438789
0.57944977 -0.10928433 0.25437662
0.53161192 -0.046454646 0.22186889
0.53292125 -0.03837778 0.24919997
0.54252458 -0.042406868 0.2336093
0.56094009 -0.03602507 0.25644803
0.5563488 -0.041648757 0.20514642
0.57632506 -0.063330494 0.25403425
0.60915506 -0.085573234 0.23610607
0.53533369 -0.031875677 0.25252634
0.57732195 -0.057949636 0.24344856
0.54857504 -0.11559945 0.25741386
0.57577693 -0.07564003 0.2094475
0.554492 -0.033305358 0.24692746
0.55983102 -0.11673349 0.23334157
0.5523029 -0.040394731 0.25355464
0.5634827 -0.046571098 0.22565584
0.53827024 -0.035872363 0.24767247
0.54580677 -0.042566109 0.20045556
0.60031962 -0.085269414 0.23970139
0.54129148 -0.034880955 0.24953978
0.57398403 -0.055413552 0.25455868
0.57465434 -0.04862529 0.24900752
0.50888193 -0.090351149 0.24795841
0.57522357 -0.074008532 0.21035461
0.56421125 -0.041694902 0.25131166
0.51432759 -0.10043889 0.21790048
0.57568812 -0.08178816 0.21298568
0.54676354 -0.11538398 0.25795388
0.57313049 -0.088776223 0.2511372
0.53676653 -0.037302937 0.24947767
0.53258753 -0.11525909 0.2364278
0.58711451 -0.087961726 0.25090888
0.54220569 -0.04223692 0.22471613
0.57050228 -0.044437941 0.25081941
0.5745734 -0.069263794 0.23111065
0.57871258 -0.049867366 0.25027335
0.5653668 -0.045414742 0.25054049
0.56402498 -0.045710191 0.22273608
0.57391351 -0.04309937 0.25019631
0.57609707 -0.070038006 0.24896036
0.53059304 -0.1161304 0.20091701
0.56912053 -0.049898766 0.25180969
0.5708847 -0.055074465 0.23824954
0.5771414 -0.079003684 0.22123803
0.57398415 -0.10977913 0.25323084
0.51163918 -0.10780588 0.25686669
0.5762971 -0.070620723 0.23238893
0.56866568 -0.092825875 0.23085479
