# .PCD v0.7 - Point Cloud Data file format
VERSION 0.7
FIELDS x y z
SIZE 4 4 4
TYPE F F F
COUNT 1 1 1
WIDTH 1384
HEIGHT 1
VIEWPOINT 0 0 0 1 0 0 0
POINTS 1384
DATA ascii
0.58478719 -0.086241819 0.23749158
0.60096377 -0.078939632 0.23532327
0.57493359 -0.033000164 0.20653164
0.59585094 0.00060764683 0.21285784
0.59756923 0.00023331749 0.21236876
0.57538801 -0.0017985532 0.2162617
0.59685516 -0.039650988 0.22762516
0.57825452 -0.0081462311 0.21988134
0.60573167 -0.078838944 0.23448533
0.58465147 -0.074241236 0.23679931
0.58553636 -0.095047556 0.23951639
0.59377652 -0.084899783 0.23725803
0.58877152 -0.038801465 0.23267397
0.60333443 0.0087078381 0.20300972
0.5831877 -0.084636576 0.27706534
0.59218085 -0.076322474 0.24065216
0.59380198 -0.12879707 0.24566634
0.60674477 -0.11265224 0.23861121
0.57711422 -0.051526774 0.22651169
0.59229279 -0.035577767 0.23152603
0.58414346 -0.0032426682 0.22259496
0.59425354 -0.088226214 0.23974726
0.57663816 -0.035318311 0.22468151
0.59507692 -0.047256701 0.22886683
0.59901929 -0.1005282 0.23644295
0.59564024 0.0061165178 0.20802607
0.58115608 -0.11429176 0.24327104
0.5821749 -0.016149025 0.22555129
0.57921988 -0.11553163 0.23861203
0.5992263 -0.086252838 0.27634802
0.59414333 -0.11333458 0.25338468
0.60107368 -0.025824789 0.22302805
0.57631844 -0.024243252 0.22050111
0.57525605 -0.0061654057 0.21432254
0.59454381 -0.10298344 0.26481783
0.59226698 -0.11446742 0.25876117
0.5906291 -0.018236689 0.22104676
0.58833015 -0.052516893 0.22850101
0.598508 -0.016830944 0.22071972
0.57675761 -0.056851327 0.21291892
0.58044082 -0.0839177 0.27747703
0.57570624 -0.034126569 0.21558802
0.57562482 -0.095162049 0.27201357
0.60381991 -0.082478769 0.23644209
0.58489007 -0.11558448 0.21589838
0.57516682 -0.017032277 0.21708405
0.60320491 -0.077807352 0.23361212
0.59867179 -0.086484447 0.23704734
0.5852195 -0.077046692 0.23909393
0.58082634 -0.10043705 0.22760272
0.59671813 -0.026869411 0.22442274
0.59923935 0.011137868 0.20188303
0.57765239 -0.01545766 0.2209311
0.58981842 -0.0024319061 0.21363692
0.57833624 -0.065707743 0.22753081
0.60127044 -0.0036120343 0.21332793
0.58880633 -0.096667059 0.27120054
0.58511108 -0.10344797 0.23579755
0.60279566 -0.055210352 0.22823751
0.58139491 -0.11178254 0.2452503
0.5845415 -0.05840414 0.23353796
0.59379357 -0.021650279 0.22261222
0.58753616 -0.052128248 0.23435973
0.6054526 -0.057778649 0.22679852
0.58800149 -0.036464192 0.23127903
0.58817506 -0.041645508 0.22757389
0.59301823 -0.12645236 0.24991386
0.57992423 -0.074959293 0.22967622
0.6030522 -0.10695047 0.23769268
0.58034945 -0.04892217 0.23016706
0.60055912 -0.089541011 0.23687913
0.59748358 -0.11606672 0.25685209
0.57920659 -0.050539277 0.22971487
0.57976282 -0.034257878 0.22713837
0.59953624 -0.045978941 0.2293922
0.59352398 -0.13038072 0.2435739
0.59750438 -0.028525108 0.22507352
0.5787124 -0.12144598 0.19878998
0.57873476 -0.072564267 0.22674581
0.58270627 -0.099676766 0.23187777
0.5929386 -0.042436015 0.22772694
0.57586199 -0.094197199 0.27285254
0.58458346 -0.059529979 0.23408321
0.59849286 -0.040380258 0.22788632
0.57635981 -0.095075041 0.27247167
0.59336448 -0.055856593 0.22932446
0.57732821 -0.065464206 0.2231103
0.59865707 -0.082828544 0.23761438
0.57637763 -0.037038893 0.2259791
0.59872431 -0.035796236 0.22681813
0.60099328 -0.083511323 0.23788202
0.6028918 -0.038986605 0.22586972
0.58156437 -0.099531315 0.27061972
0.57639515 -0.037027135 0.20975722
0.58634925 -0.036848992 0.231463
0.59539467 -0.088634372 0.24005766
0.59402591 -0.032532312 0.22583815
0.59237057 -0.04603374 0.22868058
0.57578039 -0.04692274 0.21160033
0.60262889 -0.019328991 0.21933277
0.59630907 -0.084468447 0.27745447
0.58842355 -0.050039899 0.23366934
0.60461241 -0.040217128 0.22541001
0.59830815 -0.038917422 0.22761112
0.59879988 -0.10957728 0.23998244
0.59692228 -0.10349214 0.26350674
0.59043163 -0.11413097 0.26059937
0.57499516 0.012444574 0.20625946
0.58291835 -0.097517595 0.27147767
0.59040737 -0.029108111 0.22468224
0.58219337 -0.089457303 0.23372926
0.58673251 -0.022011876 0.22283261
0.57970899 -0.07046625 0.23016909
0.60752153 -0.036781739 0.2236975
0.59824878 -0.11517271 0.24774595
0.58555597 -0.099845439 0.26982042
0.57900155 -0.068834789 0.22964031
0.58207363 -0.044065148 0.23061448
0.58606791 -0.014139581 0.22641341
0.59337533 -0.11311116 0.24847095
0.59782618 -0.13168524 0.24096817
0.59510595 -0.10917335 0.25956479
0.57799399 -0.078320637 0.22345522
0.5748831 -0.014762674 0.21319313
0.57972229 -0.010979129 0.22263786
0.5764088 -0.032460563 0.20907365
0.58630502 -0.090914182 0.2754578
0.57920611 -0.084843442 0.22335239
0.59300894 -0.018153153 0.22134042
0.59636635 -0.058581937 0.23433045
0.60213071 -0.076601014 0.23327395
0.59889239 -0.0024633857 0.21722576
0.59929717 -0.11887841 0.25437534
0.57948488 -0.070280239 0.23018622
0.58962595 -0.051861417 0.22835505
0.58170211 -0.085437693 0.27703151
0.585774 -0.10382719 0.2182797
0.58792162 -0.018174207 0.22105479
0.57945508 -0.052423187 0.22981146
0.59715772 -0.057545152 0.22918768
0.58180511 -0.042125329 0.23054837
0.57498646 0.013489394 0.20702563
0.59261018 -0.038521454 0.22742401
0.57574606 -0.032943357 0.22324896
0.59834552 -0.11509801 0.25707963
0.57935297 -0.0095940176 0.22075519
0.58478105 -0.10499352 0.2344804
0.57549721 -0.023484556 0.21791409
0.57408196 0.012510785 0.20581892
0.57596797 -0.041633975 0.22507609
0.58540648 0.0037323718 0.21017306
0.59908783 -0.085434541 0.23751202
0.58152443 -0.072591484 0.233634
0.60091883 -0.0038393526 0.21362926
0.58247882 -0.099139266 0.23350577
0.58131969 -0.029675687 0.2272933
0.59142178 -0.075714067 0.23345838
0.58569968 -0.040158711 0.22765097
0.58820277 -0.099493213 0.26879206
0.59185499 -0.079009496 0.24120177
0.58853978 -0.0947823 0.27244824
0.60558742 -0.04604486 0.22684039
0.58196729 -0.027519166 0.22787806
0.59642214 -0.11444423 0.25704318
0.57569224 -0.0063909306 0.21574324
0.5836252 -0.091883674 0.27465969
0.57640398 -0.045780983 0.2168369
0.60359013 -0.0993388 0.23496857
0.57910949 -0.12154704 0.23546816
0.59099889 -0.03511497 0.23117408
0.57363403 -0.0042707017 0.21079117
0.5995959 -0.11894515 0.25730932
0.58022684 -0.076085687 0.23306736
0.59426606 -0.084790029 0.23958245
0.59566039 -0.1127128 0.24467942
0.58060324 -0.051625598 0.23101521
0.57396829 0.010646609 0.20032266
0.59286892 -0.11538567 0.257965
0.58610642 -0.046879914 0.2266501
0.58723062 -0.096408486 0.24077362
0.60338849 -0.049554694 0.22770134
0.5932681 -0.0047270725 0.2182135
0.58126616 -0.11192182 0.24507855
0.59179193 -0.035943501 0.22594409
0.60181731 -0.024141325 0.22159418
0.58000201 -0.016566115 0.22407913
0.59004253 -0.093349703 0.24047725
0.59738535 -0.08282879 0.23732772
0.58710307 -0.055705849 0.22831856
0.60493624 -0.08207377 0.23569505
0.59255618 -0.093850963 0.24145448
0.60413677 -0.10919747 0.23871562
0.59474427 -0.079520874 0.2410195
0.5994705 -0.0073760324 0.21772186
0.59772331 -0.083880112 0.24075317
0.57327658 -0.009614585 0.20936367
0.60661238 -0.10084555 0.23339632
0.58553869 -0.066923127 0.23455393
0.60198182 -0.103513 0.23714904
0.58564436 -0.096135899 0.24012467
0.57499003 0.0012452417 0.21558739
0.60089648 -0.11966758 0.25322127
0.57970679 -0.058492638 0.22952844
0.60240942 -0.084206462 0.2717053
0.58831692 0.0080195628 0.20608543
0.58443928 -0.052708112 0.23362561
0.59722555 0.00030818305 0.21246657
0.58757716 -0.094425067 0.23971601
0.57658929 -0.044150922 0.22490548
0.58626401 -0.093482591 0.27354088
0.5818069 -0.090920351 0.22973607
0.59591746 -0.0097946515 0.21844469
0.57915181 -0.11522689 0.23880039
0.60079753 -0.037489224 0.2270501
0.60426146 -0.078841835 0.23511785
0.59389877 -0.0010405221 0.21770583
0.5873577 -0.039377794 0.2328444
0.58204299 -0.093551129 0.22792166
0.60569841 -0.0060962024 0.21307388
0.58330989 -0.099952728 0.2698909
0.58727634 -0.098704763 0.24181063
0.58200872 -0.06575197 0.23217292
0.57939661 -0.062959112 0.22877361
0.58133882 -0.10926811 0.25925529
0.58689052 -0.029425375 0.22326842
0.59608787 -0.016303716 0.22140859
0.58776742 -0.10159146 0.26836404
0.60389614 -0.024901779 0.22120616
0.60113132 -0.10753735 0.23890528
0.58010024 -0.11520066 0.24068132
0.59428138 -0.0613272 0.22809359
0.57535887 -0.016679974 0.21609358
0.60652345 -0.016131191 0.21681835
0.57765913 -0.068624601 0.22095598
0.58845735 -0.099942155 0.26859725
0.57590067 -0.051916257 0.21068735
0.59487396 -0.13143823 0.24236128
0.59458292 -0.094476439 0.24207915
0.59925663 -0.028598346 0.22437043
0.57606119 -0.039881412 0.21017909
0.57727414 -0.094439872 0.27343026
0.59919029 -0.07628455 0.23432554
0.57581586 -0.096017651 0.27148473
0.58815861 -0.013098135 0.21899602
0.59977943 -0.11506451 0.24574396
0.59918416 -0.090984918 0.27418751
0.58217573 -0.12652723 0.19689715
0.57553518 -0.030794822 0.20712775
0.59067553 -0.0087958388 0.21621017
0.57505238 -0.062444117 0.21464553
0.58226418 -0.092638284 0.2733736
0.60104418 -0.11086958 0.2411495
0.60333467 -0.03493863 0.22427267
0.58485037 -0.0092121288 0.22533631
0.58393347 -0.083829679 0.27806032
0.60602731 -0.082635559 0.23559913
0.59659505 -0.10906472 0.25900421
0.59579772 -0.042276759 0.22786498
0.58519512 -0.031090749 0.2242115
0.57968032 -0.095166728 0.27283016
0.58108503 -0.081393488 0.23637794
0.59489965 -0.085825495 0.24051137
0.59118855 -0.035058871 0.22549272
0.5861693 -0.12931176 0.19833632
0.57740688 -0.0045357756 0.2180308
0.60175484 -0.08396554 0.23728469
0.59497851 -0.0059322249 0.21628945
0.59175622 -0.11637648 0.25782955
0.58622766 -0.071541287 0.23557594
0.59026259 -0.1332587 0.19761795
0.59711432 -0.088781081 0.27470425
0.59566146 -0.017659271 0.22052494
0.58931899 -0.09810292 0.24199602
0.60055518 -0.080471128 0.2365128
0.60398012 -0.0063691353 0.21271785
0.58147913 -0.11273294 0.24865422
0.58040887 -0.11227745 0.25247672
0.59125918 -0.035722449 0.22614978
0.58079076 -0.095388167 0.27326187
0.59609556 -0.011089324 0.21812391
0.57940519 -0.036528111 0.22797844
0.58537543 -0.12975195 0.1975861
0.58932042 -0.07159704 0.23719224
0.58503294 -0.12757321 0.20036331
0.60626149 -0.048507225 0.22690825
0.59320289 -0.05418456 0.229167
0.60712487 -0.11152403 0.23897481
0.58080846 -0.092713691 0.2170513
0.57974166 0.011206958 0.21330331
0.57917684 -0.11822674 0.23660058
0.57652026 -0.068674192 0.21895577
0.57659787 -0.021440549 0.22136526
0.60337102 -0.084364668 0.27120417
0.60411471 -0.048667554 0.22793522
0.58992112 -0.042949695 0.23293623
0.59096831 -0.01890276 0.2217425
0.57454181 -0.0047256188 0.21364866
0.59069377 -0.1327922 0.19819318
0.57938814 -0.083005697 0.22209917
0.59989101 -0.083119825 0.23734015
0.5863927 -0.019487055 0.22805557
0.5918504 -0.039715666 0.22726701
0.58024913 -0.088365637 0.22943276
0.58776343 -0.089684591 0.23925325
0.60253429 -0.039802104 0.22653759
0.57863766 -0.084786952 0.27586937
0.58094776 -0.084811576 0.27708918
0.57961911 -0.082518727 0.22393553
0.58954287 -0.071781643 0.23717524
0.58477843 -0.087517843 0.27714542
0.58546525 -0.10311209 0.23352847
0.5839057 -0.059826769 0.233501
0.59431916 -0.078633271 0.23414895
0.57783276 -0.076781109 0.22450466
0.59550732 0.00068251241 0.21295567
0.58595186 -0.017380564 0.22666676
0.59580344 -0.051963564 0.2298615
0.58845878 -0.057573151 0.22785445
0.58226287 -0.11369148 0.24566038
0.60636455 -0.047073875 0.22671613
0.58546245 0.005873214 0.20873122
0.57883459 -0.020461159 0.22328651
0.58518261 -0.0033206563 0.21366629
0.60891718 -0.084885627 0.2358498
0.58024782 -0.10810017 0.25817895
0.59492391 -0.048389744 0.22824077
0.58923393 -0.038336139 0.23191172
0.5849703 -0.078704245 0.23909079
0.58414263 -0.12103491 0.2033567
0.58643395 0.0028933906 0.210288
0.58717752 0.0045768581 0.20885414
0.58552092 -0.10571396 0.2438187
0.59310305 -0.054998178 0.23522566
0.58547038 -0.036539983 0.22662652
0.5773378 -0.094725072 0.27325398
0.58614248 -0.072254948 0.23635709
0.58266211 -0.093518592 0.23233749
0.57591003 -0.034713957 0.22473718
0.57597846 -0.037009954 0.22578654
0.58905613 -0.026635006 0.22362393
0.60144401 -0.0079531781 0.21778388
0.58068836 -0.083649933 0.27780721
0.58218533 -0.057886109 0.23265748
0.59645236 -0.0025954421 0.21344742
0.57722002 -0.047875497 0.22790885
0.59218484 -0.035336837 0.2261484
0.57645822 -0.086997502 0.27577716
0.58195484 -0.030431347 0.22842954
0.5775668 -0.066027254 0.21876279
0.58383209 0.0022082566 0.22103633
0.57929999 -0.079370588 0.23150049
0.57734615 -0.089610197 0.2743254
0.59629905 -0.11354358 0.25764385
0.57866561 -0.11524591 0.23987912
0.57805705 -0.040283028 0.22854568
0.5991053 -0.089218825 0.27544826
0.5842185 -0.10286347 0.23304377
0.60209131 -0.098678984 0.23517446
0.58078915 -0.088722959 0.23081186
0.59063166 -0.09521538 0.27189645
0.59479457 -0.11724362 0.25824183
0.58306664 -0.07771378 0.23744805
0.59423363 -0.10528015 0.26354879
0.58206153 -0.077970177 0.23672023
0.58501071 0.0019731335 0.2115079
0.57561952 -0.047096845 0.21138565
0.60495532 -0.046017785 0.22670841
0.58546847 -0.0051314002 0.22461826
0.57924533 -0.10220636 0.26605001
0.59487814 -0.11319242 0.25845587
0.57976323 -0.085011408 0.27630696
0.57914615 -0.078777902 0.22644198
0.57594949 0.0017772078 0.21649402
0.58263451 0.010224337 0.20324109
0.59779048 -0.1174031 0.25590852
0.58233374 -0.089305408 0.23391655
0.57858515 -0.075337104 0.22732656
0.60110778 0.003096472 0.20768104
0.57846856 -0.11508235 0.23989418
0.58131045 -0.099507399 0.22854804
0.5834502 -0.10194493 0.2684963
0.58001393 -0.076736473 0.23247311
0.57771373 -0.06485834 0.22105721
0.57650453 -0.058617368 0.21824701
0.59703547 -0.087014988 0.27596498
0.58637583 -0.091919288 0.27475417
0.57604539 -0.049442045 0.211237
0.60065037 -0.11968554 0.25331393
0.57581609 -0.041762948 0.21813288
0.58690017 -0.043888349 0.2256503
0.57908744 -0.055743944 0.22987115
0.59656936 -0.08492741 0.27725533
0.60400003 0.0076483674 0.20342588
0.57830691 -0.028185865 0.22542459
0.58968639 -0.039662905 0.22688641
0.58507061 -0.049549967 0.23358727
0.59704769 -0.088482849 0.27488858
0.59292674 -0.12349039 0.25175735
0.57895827 -0.0038564715 0.21936338
0.58212823 -0.1066111 0.26163864
0.5790503 -0.085656524 0.23214236
0.59422779 -0.11619617 0.25689915
0.57938027 -0.073196188 0.22933218
0.58041573 -0.087100126 0.27646893
0.60167956 -0.016714299 0.21981218
0.58790153 -0.10778279 0.2165015
0.5978204 -0.11898614 0.25493124
0.58355761 -0.098030418 0.21730869
0.58291584 0.0021219226 0.21230789
0.58906132 -0.088183008 0.27624324
0.60454065 -0.064774416 0.23077683
0.59714323 -0.042211086 0.22919708
0.58152229 -0.033282321 0.22880101
0.59219569 -0.051620133 0.22990768
0.599406 0.004391734 0.20882691
0.58679688 -0.065991946 0.23591518
0.60098904 -0.077972829 0.23467213
0.57779783 -0.087287508 0.21808791
0.57881266 -0.067914829 0.22886443
0.5900557 -0.015282256 0.21935534
0.58683205 -0.049498625 0.23080322
0.59784371 0.011172951 0.19991082
0.59247482 0.0093476716 0.19832721
0.60317683 -0.051543903 0.22782259
0.58243597 -0.029910821 0.22907139
0.60052985 -0.08143793 0.23716393
0.58480632 -0.10904586 0.21391091
0.58143085 -0.089591362 0.27517498
0.60195869 -0.0095473481 0.21784021
0.57907397 -0.080784366 0.22356966
0.59347945 -0.030590808 0.23178127
0.58306682 -0.051628046 0.23233363
0.5861522 -0.095045887 0.2723276
0.59540933 -0.10201066 0.26504633
0.59601891 -0.088114873 0.27460873
0.57701093 -0.025020985 0.22165175
0.57918239 -0.11103187 0.24191175
0.58314067 -0.10192249 0.268347
0.58756018 -0.043622639 0.23252784
0.58976156 -0.088223197 0.23869556
0.57555151 -0.020290984 0.21759266
0.5858261 -0.10242487 0.26806211
0.59569877 -0.11125397 0.24242298
0.60416186 -0.04171779 0.22592957
0.59512824 -0.10771637 0.26168767
0.57642627 -0.052719023 0.22526339
0.57652354 -0.069413483 0.21976538
0.58556902 -0.074681684 0.23831943
0.59213012 -0.065392524 0.23268789
0.59418434 -0.021323442 0.22172806
0.58402812 -0.095515355 0.22076969
0.58025235 -0.027022004 0.22732584
0.60130984 -0.046283737 0.22808072
0.573798 -0.0082441615 0.21200754
0.5899719 -0.0089501329 0.21661416
0.5892877 -0.084750026 0.2378104
0.5785383 -0.085541867 0.27661246
0.60295159 -0.051006969 0.22824459
0.58099264 -0.031472392 0.22714585
0.58938646 -0.13253151 0.19768493
0.58207983 -0.11501003 0.24458951
0.58412772 -0.018001474 0.22658446
0.60112691 -0.054573968 0.23058079
0.59410471 -0.11529552 0.25749981
0.60715991 -0.080442823 0.23493496
0.58519238 -0.10095679 0.26880562
0.59712201 0.0097563975 0.2049799
0.59273988 -0.12487417 0.25099275
0.58899057 -0.03888147 0.22666734
0.57481354 -0.0051403912 0.21484166
0.57763946 -0.065504022 0.21918774
0.59954876 -0.018757286 0.22070843
0.58294392 -0.027403558 0.22848673
0.57545191 -0.026230801 0.21992368
0.58355397 -0.10318897 0.23109417
0.59918225 0.0090027498 0.20459534
0.58116567 -0.11781534 0.23932324
0.59753633 -0.08341071 0.23720682
0.58946341 -0.067683481 0.2328013
0.59371656 -0.013400856 0.2192294
0.59540117 -0.080012105 0.23587181
0.58043921 -0.050098222 0.23070081
0.60138637 -0.11634111 0.25628659
0.59244597 -0.080863334 0.24015078
0.60300285 -0.087715894 0.23643954
0.60648876 -0.051610298 0.22763255
0.58358926 -0.046378307 0.23242673
0.58090311 -0.093265846 0.27353454
0.58539915 -0.10438503 0.24338055
0.59450132 -0.033232234 0.23173341
0.59480482 -0.036913589 0.22796547
0.57955652 -0.057002142 0.22919424
0.58431965 -0.1054744 0.24335167
0.58422244 -0.034541287 0.23067249
0.57581693 -0.051541198 0.21091919
0.58855516 -0.039984986 0.22608797
0.58077747 0.00021405275 0.21928145
0.57569033 -0.03727198 0.22273219
0.60135734 -0.00028802265 0.21108924
0.59793049 -0.082345232 0.23760596
0.59823513 -0.13049942 0.24151868
0.58587635 0.0097934958 0.20468357
0.58175105 -0.10592738 0.26464757
0.58810896 -0.058720592 0.22854683
0.60306627 0.011221396 0.2001863
0.57630181 -0.03524952 0.22590533
0.59592152 0.003616659 0.20956101
0.58631295 -0.10783289 0.21561323
0.58046645 -0.10424165 0.26114288
0.60419482 -0.08223635 0.23612073
0.58901733 0.0069423788 0.20777218
0.59880626 -0.020094479 0.22145048
0.60201305 -0.0016464856 0.21170768
0.57986897 -0.0857189 0.23388842
0.58073026 -0.076985531 0.23402661
0.58735687 -0.03402669 0.2254267
0.5954296 -0.1217937 0.25298226
0.60031664 -0.11168337 0.25957522
0.58418417 -0.12601542 0.19970444
0.58275104 -0.09139365 0.27455276
0.58547914 -0.062164638 0.23532607
0.59815651 -0.011041365 0.21853009
0.58444113 -0.10095639 0.23998339
0.57669759 -0.091990881 0.27357477
0.59345126 -0.10928428 0.24080871
0.59674102 -0.031536471 0.22654663
0.57611376 -0.058589038 0.2180585
0.60658711 -0.012728693 0.21581145
0.58488065 -0.084615827 0.27798793
0.57951993 -0.081392057 0.23148029
0.57331079 0.00016950314 0.21254051
0.5868184 -0.071752593 0.23573665
0.58397347 -0.10353712 0.2310621
0.58301806 -0.10205518 0.26818338
0.59683591 -0.0029223072 0.21781163
0.59150368 -0.027790703 0.22333953
0.59229153 -0.029044285 0.23093228
0.58266973 -0.093978241 0.23335575
0.5833118 -0.031790234 0.22950748
0.59642309 -0.11262489 0.25815147
0.59105611 -0.010247125 0.22654505
0.57637084 -0.045801871 0.21951036
0.60243493 -0.012433781 0.21739706
0.57741106 -0.055736192 0.2127385
0.58818072 -0.078413829 0.2396722
0.60563916 -0.045408849 0.22679166
0.58389032 -0.10654505 0.23827168
0.58711892 -0.098687351 0.2701591
0.59124291 -0.036345072 0.22656912
0.5987097 -0.086068042 0.27620751
0.59813982 -0.089308031 0.2370322
0.5922938 -0.042273749 0.23335311
0.58987463 -0.023317065 0.22234927
0.58264399 -0.12391275 0.20043035
0.58178085 -0.10987157 0.25904697
0.58054972 -0.12492233 0.19856319
0.58076918 0.0012139998 0.22001472
0.58178556 -0.10897208 0.24482645
0.60096896 -0.015467468 0.22003497
0.58634824 -0.053783365 0.22856343
0.58190393 -0.050662905 0.23242252
0.59668708 0.0022708087 0.21855013
0.58540118 -0.12842627 0.19993128
0.59423536 -0.0017560404 0.21837249
0.59059405 -0.078306518 0.23425649
0.58560014 -0.083517723 0.23723036
0.5945996 -0.041462056 0.22762135
0.5765419 -0.063134283 0.22034788
0.58632284 -0.034712553 0.22526293
0.60255116 -0.057442639 0.22822449
0.59380341 -0.022474436 0.22265372
0.59206182 -0.01535525 0.22737536
0.59040308 -0.0054439041 0.21773817
0.57306343 -0.012732583 0.20965575
0.59527618 -0.057093564 0.2348443
0.59372926 -0.027302504 0.22417244
0.58997518 -0.13356969 0.19723447
0.57702535 -0.032072432 0.22593036
0.58675301 -0.092232347 0.27472535
0.58835435 -0.0071142577 0.2260552
0.59564835 -0.057591893 0.23110794
0.57701463 -0.051244281 0.22531337
0.57594705 -0.033390675 0.21625999
0.58043319 -0.064308867 0.2296866
0.60672659 -0.084084317 0.23625867
0.59668118 -0.043110628 0.22822939
0.58384103 -0.096876621 0.27244505
0.59578609 -0.10791261 0.24017262
0.58129388 -0.080755204 0.23696075
0.59084541 -0.08295013 0.23722403
0.58915102 -0.037964988 0.23214112
0.57619399 -0.021653166 0.21828531
0.57973462 -0.049587384 0.2293468
0.57600135 -0.044796139 0.21193437
0.59948403 -0.019563857 0.22083721
0.58978438 -0.025859894 0.22279826
0.59888303 -0.11806633 0.2557593
0.57573676 -0.027913636 0.22018814
0.5819158 -0.088621505 0.23555051
0.60418642 -0.082558617 0.23633778
0.58854067 -0.078439929 0.23984584
0.58224159 -0.10539664 0.265302
0.59302652 -0.11358068 0.2565743
0.59562081 -0.086694546 0.24025665
0.58243752 -0.048828643 0.23270838
0.58298784 0.0048744343 0.21045411
0.60689402 -0.10577668 0.23526749
0.58184481 -0.0072303847 0.22248107
0.60024273 -0.026984712 0.22411337
0.57929301 -0.015757717 0.22294229
0.58042485 -0.0015754674 0.22047886
0.59989095 -0.017132215 0.2203261
0.58002317 -0.086077556 0.22287977
0.58093506 -0.11115471 0.24546705
0.59764361 -0.023232078 0.22278218
0.58728844 -0.048847109 0.22744259
0.57989073 -0.1135436 0.24179159
0.58283073 -0.074109226 0.23592095
0.58183002 -0.091608405 0.2184142
0.57655197 -0.09082678 0.27300227
0.57374215 0.0011439724 0.21349064
0.59725577 -0.024685482 0.22391106
0.58204377 -0.073300496 0.23338923
0.5797208 -0.07601653 0.23149388
0.59561801 -0.071941189 0.23298126
0.57986712 -0.012923415 0.22263436
0.57561135 -0.069657609 0.21774313
0.59089696 -0.035956632 0.22646022
0.59476572 -0.075962394 0.23346235
0.59564275 -0.040533178 0.22774835
0.5945161 -0.11341579 0.25327861
0.59429103 -0.02851042 0.2244443
0.59486306 -0.052952934 0.2292188
0.57561064 -0.0069788555 0.21526575
0.60637695 -0.083359934 0.23592891
0.60755056 -0.079558372 0.23418164
0.58417237 -0.097322099 0.23710732
0.60049444 -0.031912707 0.22598194
0.58607239 -0.021347668 0.22786455
0.58639359 -0.043063991 0.22636586
0.57618892 -0.040920936 0.2216606
0.59750986 -0.13586989 0.23855123
0.58281118 -0.068823799 0.2330433
0.57559979 -0.087926276 0.27463189
0.60121542 -0.027286196 0.22476466
0.59684521 -0.10539278 0.26113659
0.58373022 -0.098425895 0.27124262
0.60966915 -0.11921956 0.24043244
0.60003823 -0.025291644 0.22311907
0.58864611 -0.092494078 0.27419344
0.59161836 -0.012636377 0.21906559
0.57991213 -0.10287905 0.26320443
0.58391309 -0.0083637461 0.2150031
0.59717852 -0.054480441 0.23093855
0.57738167 -0.048599575 0.22746129
0.60322177 -0.07716281 0.23317803
0.5941689 -0.050158959 0.22872478
0.58924264 -0.090113409 0.23972957
0.60252249 -0.075714059 0.23251849
0.60092676 -0.0035371685 0.21342574
0.5821647 -0.059527583 0.23278874
0.59780067 -0.017288327 0.22132604
0.58164871 -0.091486864 0.22382005
0.59078944 -0.049219076 0.22823115
0.60117805 -0.088989876 0.23695447
0.58261496 -0.087865032 0.23648329
0.58067626 -0.10315955 0.26611361
0.59965575 -0.088147238 0.23688702
0.60183591 -0.038756579 0.22617026
0.58766055 -0.062837832 0.23599841
0.60458642 0.0035579377 0.20588338
0.57567573 -0.0044102655 0.21719569
0.5984844 -0.13418041 0.2391706
0.58717781 -0.089374214 0.27570832
0.57795149 -0.073224753 0.22719209
0.57958317 -0.079806566 0.22456394
0.60694689 -0.10258943 0.23440778
0.58129174 -0.10025081 0.22528286
0.58599102 -0.035402361 0.230985
0.5835433 -0.098270766 0.27125692
0.57853496 -0.046902303 0.22933152
0.57711893 -0.067143634 0.2204058
0.5774132 -0.096414044 0.27204829
0.59466326 -0.07968881 0.23470041
0.59958243 0.011049329 0.20306832
0.5939185 -0.12524489 0.25027075
0.5843935 -0.064898618 0.23408051
0.5979389 -0.082022056 0.2373883
0.60643315 -0.0044328365 0.21165714
0.57840955 -0.11262476 0.24032241
0.58601147 -0.10340657 0.24307726
0.58746243 -0.025011549 0.22198424
0.5791114 -0.065013997 0.22710472
0.57936841 -0.078877799 0.23190072
0.6042152 -0.10619846 0.23669583
0.58505476 -0.052928261 0.23379304
0.58384031 -0.096880525 0.21830854
0.5888707 -0.051239938 0.23437692
0.59597981 -0.11487677 0.25107074
0.57625788 -0.046407335 0.21494316
0.57636565 -0.095776923 0.27195695
0.58736962 -0.073227122 0.23765083
0.59457201 -0.029441295 0.22500312
0.59089184 -0.076597154 0.24111205
0.59015626 -0.11048564 0.25830328
0.59539193 -0.05124858 0.23003478
0.59800768 -0.11399034 0.25789681
0.57505703 -0.023705699 0.20398171
0.58627182 -0.086008146 0.27770624
0.59773272 -0.01238941 0.21913137
0.59885025 -0.0027753573 0.21705337
0.5817982 -0.099451415 0.2315574
0.57871586 -0.084823862 0.21904415
0.58983439 -0.0018220623 0.2132262
0.6028927 -0.023145296 0.22047327
0.58017552 -0.027575679 0.22687617
0.60055554 0.0086998809 0.20548071
0.59549552 -0.11405701 0.25766915
0.58324558 -0.099664919 0.27006879
0.59020531 -0.059407223 0.22849043
0.57644123 -0.054798566 0.21697052
0.59659886 -0.051160529 0.22958046
0.58909696 -0.067603633 0.23290563
0.60591704 -0.047055926 0.22736861
0.57749528 0.01033845 0.21145873
0.59225255 -0.03411141 0.22562225
0.59553415 -0.10296679 0.23827904
0.60360378 -0.0075064269 0.21363248
0.57836229 -0.065824501 0.2261053
0.59569204 -0.087357678 0.2749922
0.59268999 -0.11219627 0.2558018
0.59788793 -0.084139191 0.23753846
0.5775305 -0.044453241 0.22789349
0.5878377 -0.030308601 0.2235759
0.59709561 -0.1154513 0.25097266
0.57912159 -0.080099992 0.22274674
0.59863943 -0.068744175 0.23211566
0.60847604 -0.13318051 0.23872593
0.57918829 -0.083835319 0.22273332
0.57486391 -0.013957781 0.21513003
0.58447045 -0.010741071 0.22535807
0.58043694 -0.035872627 0.22901495
0.59741241 -0.011703967 0.21843949
0.57517856 -0.01759802 0.20855294
0.5762068 -0.0499999 0.22173856
0.59294868 -0.037992127 0.22669759
0.5806576 -0.0053726044 0.22186215
0.57215899 -0.011326616 0.20750166
0.60109806 -0.045134611 0.22762574
0.58984238 -0.024551358 0.22318055
0.60200787 -0.10251607 0.23647763
0.60006344 -0.012624037 0.2192518
0.58507097 -0.042831626 0.22581974
0.59527045 -0.11307962 0.24636339
0.58144957 -0.10933527 0.25791174
0.58893156 -0.053286415 0.23425305
0.59013331 -0.003727139 0.21435966
0.59694546 -0.11781717 0.25476748
0.5980171 -0.082237296 0.24076931
0.585123 -0.12282991 0.20661774
0.59346259 -0.02209169 0.22254641
0.59734255 -0.03927213 0.22780138
0.57702899 -0.031555295 0.22496055
0.58301616 -0.094703287 0.23029983
0.58630902 -0.012562865 0.21803024
0.59499687 -0.00033882892 0.21767125
0.59858483 -0.088300899 0.27584654
0.6017403 -0.042900406 0.22768183
0.59708631 -0.0048672981 0.21468011
0.59315377 -0.09639097 0.24260743
0.59360546 -0.077497214 0.2337027
0.59744644 -0.11603185 0.25375426
0.58023262 -0.094924897 0.27330455
0.58058017 -0.030516814 0.2276298
0.58748972 -0.088702761 0.23847762
0.60060066 0.010217861 0.20318224
0.57658273 -0.058357321 0.21306743
0.57933515 -0.082342081 0.22662035
0.59953713 -0.12399553 0.24991162
0.60108185 -0.10816056 0.26264429
0.57951266 -0.039171599 0.22879235
0.60111582 -0.039222203 0.22678749
0.58560085 -0.060892429 0.23497653
0.58286828 -0.090548865 0.27523887
0.59438056 -0.032216493 0.22588132
0.59144479 -0.059866391 0.2348053
0.59881771 -0.0049396614 0.21398541
0.59277236 -0.10624795 0.24036281
0.57675242 -0.060683217 0.22226904
0.578628 -0.094526693 0.2727384
0.5898273 -0.044326797 0.22663984
0.5770756 -0.093004815 0.2730293
0.60385579 -0.027132319 0.22142686
0.57672513 -0.02332464 0.22139677
0.58453655 -0.10600889 0.23495358
0.59041256 -0.037555061 0.2317663
0.58967042 -0.095007762 0.2728878
0.58157176 -0.091357104 0.23199449
0.57557249 -0.041560799 0.21815151
0.60024965 -0.089816578 0.23684144
0.57896197 -0.076210015 0.22688448
0.59952003 -0.032149225 0.22533531
0.60028166 -0.11880659 0.25400475
0.60656029 -0.10283941 0.23473917
0.58107448 -0.044650406 0.23100056
0.59635532 -0.017308282 0.22044678
0.58686411 -0.089351483 0.27555698
0.5857318 -0.12501922 0.20668209
0.57899702 -0.11236753 0.24082698
0.59041238 0.006945123 0.20717201
0.59195316 -0.024917204 0.22388479
0.59535408 -0.051528972 0.22987986
0.58420378 -0.0038490079 0.22353326
0.58448738 -0.097785488 0.23828761
0.6025368 -0.094761074 0.23493624
0.58082068 -0.11555141 0.24080864
0.58963883 -0.073726036 0.23849881
0.59469402 -0.034872513 0.23197988
0.59979266 -0.011632707 0.21872547
0.574606 -0.011423817 0.21415463
0.59842134 -0.1346474 0.23891257
0.59756881 -0.056690812 0.2295353
0.59733617 0.0045387447 0.20961733
0.57725257 -0.024282588 0.222326
0.60968667 -0.11854947 0.23998114
0.59712195 -0.025586313 0.2237903
0.59868699 -0.02345939 0.22248518
0.59978974 -0.032540217 0.22589613
0.57934761 -0.061080262 0.22742687
0.60328686 0.0068892627 0.20423451
0.60083878 -0.048034143 0.22845671
0.59238094 -0.057332709 0.23106392
0.59268284 -0.087461486 0.23946971
0.59355623 0.005960878 0.20902301
0.57503992 -0.030642489 0.21915472
0.58009756 -0.11079842 0.24257442
0.57702655 -0.052996401 0.21184716
0.58585948 -0.056673534 0.23416775
0.57680798 -0.046623297 0.22455192
0.59459329 -0.019491795 0.22161342
0.5848341 -0.024783187 0.22872628
0.59888887 -0.058161069 0.23136875
0.57620418 -0.071929105 0.22179827
0.60109192 0.0024902804 0.20808931
0.57462466 0.01309795 0.20654295
0.58104074 -0.10543124 0.26057297
0.58023816 -0.076722831 0.23125005
0.59772968 -0.11604877 0.25675943
0.58196783 -0.067345835 0.23232843
0.58640993 0.0019758865 0.21090592
0.60441166 -0.034242261 0.22334956
0.57639277 -0.053433567 0.21930492
0.60050172 -0.035209712 0.2264585
0.58319813 -0.084170416 0.23681495
0.58550811 -0.084661312 0.2782906
0.5956288 -0.12953356 0.24320425
0.58661479 -0.054044385 0.22829217
0.58213079 -0.095517747 0.22651778
0.5877161 -0.043453936 0.23273587
0.58199292 -0.09090142 0.2325564
0.60397738 -0.031370562 0.22484635
0.5868364 -0.074399643 0.23785335
0.57382876 0.012539841 0.20435134
0.59813821 -0.033881195 0.22701851
0.5813182 -0.036301658 0.22917067
0.58388078 -0.009598041 0.21583439
0.59243578 -0.043893997 0.22705008
0.58971393 -0.096903712 0.24173909
0.58086896 -0.10419869 0.26409692
0.59519178 -0.11627611 0.25615692
0.58525079 -0.12397004 0.20449175
0.59319377 -0.076064073 0.24138564
0.59689116 -0.1094975 0.24074829
0.57893378 -0.072825581 0.22936632
0.57643986 -0.06013206 0.22250819
0.59760517 -0.11877538 0.25515026
0.57603025 -0.041092642 0.22144887
0.60346419 -0.048993912 0.22801119
0.57741696 -0.066065505 0.22000755
0.57553566 -0.018895276 0.20508061
0.59750599 -0.0021841463 0.21399689
0.5793069 -0.080200672 0.23089178
0.5878427 -0.087435789 0.23824815
0.59731209 -0.0094888275 0.21764398
0.58850271 -0.063957743 0.23329355
0.590352 -0.098927759 0.24329439
0.5800876 -0.10392719 0.26117185
0.59949124 -0.0056960355 0.21419746
0.59520036 -0.10665455 0.26105997
0.59180272 -0.09775719 0.26929539
0.60529155 -0.0084388005 0.21479984
0.59544569 -0.026296079 0.22406334
0.58094835 -0.074266352 0.23344296
0.57678831 -0.055753168 0.22592556
0.57607329 -0.041519452 0.22386371
0.59535307 0.0095625017 0.20204566
0.58691847 -0.097101405 0.27122173
0.5860064 -0.022784699 0.22365585
0.58293283 -0.090837978 0.27506015
0.57559389 -0.087217972 0.27515128
0.59219283 -0.088012472 0.23872496
0.59838581 -0.0081986235 0.21632898
0.60619164 -0.074256659 0.23252714
0.57600713 -0.013039012 0.21912719
0.57979673 -0.076356426 0.23128378
0.57756585 -0.0021625375 0.21851361
0.58328301 -0.072383307 0.23473002
0.58997864 -0.054689456 0.23513237
0.58382404 -0.10385109 0.2172171
0.57829058 -0.036812443 0.22717133
0.5995568 -0.076364398 0.23422123
0.59071624 -0.046485439 0.23346043
0.59429359 0.0091781439 0.20275462
0.57287264 -0.01175164 0.20892388
0.59149504 -0.078983404 0.24102813
0.59836578 -0.064855047 0.23220496
0.60690278 -0.10544346 0.23504308
0.58415586 -0.020070998 0.22777937
0.58087617 -0.0079459921 0.22278734
0.60760838 -0.10760791 0.23617388
0.58162314 -0.10658222 0.26544923
0.57755142 -0.037624124 0.22752972
0.59812826 -0.045359123 0.22958562
0.58702189 -0.082804032 0.23851883
0.59042037 -0.092114024 0.24023807
0.60326719 -0.096425906 0.23445173
0.60118431 -0.051930327 0.23007914
0.58452868 -0.070187069 0.23431127
0.574117 -0.014590487 0.20884962
0.57996798 -0.088255443 0.2212434
0.58515352 -0.025907984 0.22942093
0.58092338 -0.11754453 0.24074651
0.58454877 -0.06559404 0.23365065
0.59749216 -0.084573999 0.23746367
0.58545423 -0.065724194 0.23539321
0.57846898 -0.048322223 0.22824858
0.58485782 -0.0023244182 0.21314581
0.59578055 -0.10107394 0.26546091
0.60689819 -0.05147196 0.22859864
0.57315332 -0.013134994 0.20940702
0.58178788 -0.097773314 0.23008326
0.58595717 -0.035962563 0.22589952
0.57935196 -0.080901809 0.2331053
0.60012919 -0.11632665 0.25558019
0.60276765 -0.0038398523 0.21600023
0.60060978 -0.097356379 0.23493399
0.58853471 -0.0092953322 0.21618538
0.58585811 -0.087615862 0.23840511
0.60049361 -0.0071336953 0.21471964
0.58385444 -0.07727699 0.23819247
0.60181403 -0.10810714 0.26236865
0.58116287 -0.095697008 0.27323344
0.60750854 -0.08116515 0.23526379
0.57628816 -0.06406565 0.21681811
0.58335465 -0.062452804 0.23262158
0.57357752 -0.042173687 0.20986357
0.59710664 -0.041614641 0.22771755
0.58353907 -0.09601035 0.23773573
0.58869672 0.009167131 0.20516253
0.59255773 -0.036656357 0.23222564
0.60063946 -0.061147731 0.22801563
0.59597248 -0.045951743 0.22962897
0.59678137 -0.087289959 0.27562591
0.5844785 -0.12653451 0.19947921
0.59257436 -0.050591506 0.23413345
0.58221024 -0.10023189 0.23255572
0.58962047 -0.048143581 0.22813419
0.57581413 -0.031648722 0.20935392
0.58025819 -0.084475875 0.27696732
0.60090661 -0.053396199 0.22889374
0.604626 0.0050734165 0.20486271
0.59369022 -0.037076723 0.22694331
0.59419632 -0.0088596055 0.21728988
0.5835197 -0.052816965 0.23305251
0.58861905 -0.052735254 0.2344922
0.59019977 -0.013613424 0.21960481
0.58176172 -0.03720165 0.23009771
0.58883381 -0.074918382 0.23989439
0.58843315 -0.027081041 0.230313
0.58619076 -0.045410722 0.22626555
0.5934056 0.00020205566 0.21290152
0.59101224 -0.095531255 0.27186733
0.57892394 -0.10076733 0.26693949
0.59702063 -0.046273492 0.2286479
0.58758616 -0.0074506155 0.22539538
0.59892553 -0.12343474 0.25175518
0.58082807 -0.11000768 0.25708261
0.57568926 -0.032669302 0.20718068
0.58062059 -0.08134079 0.2348146
0.58342403 -0.1218124 0.20239799
0.58314657 -0.10263079 0.26782757
0.60217232 -0.11145047 0.24105032
0.5979622 -0.12297339 0.2511974
0.60340345 -0.0013415812 0.21090937
0.59386653 -0.0081762699 0.21697879
0.584683 -0.10473357 0.23326631
0.58259469 -0.1030184 0.22935261
0.59807086 -0.033791896 0.22577098
0.59222353 -0.05713404 0.23453182
0.58271462 -0.04025941 0.2310591
0.60094792 -0.086270139 0.23746432
0.59966576 -0.047841147 0.22906804
0.5771935 -0.053743917 0.2113851
0.59411305 -0.086284205 0.23803054
0.57910138 -0.075205408 0.22770038
0.59601259 -0.0061575002 0.21599512
0.58271587 -0.091087341 0.23551334
0.57633787 -0.057129838 0.22466849
0.58342963 -0.09446536 0.23611027
0.5892877 -0.042723119 0.23276393
0.60297173 -0.090360671 0.23565684
0.60638678 -0.023291331 0.21907133
0.57979363 -0.11982762 0.19921011
0.5761264 -0.014227196 0.21696113
0.58065671 0.0042811031 0.21815728
0.57683849 -0.037936296 0.22691734
0.59400314 -0.076774091 0.234327
0.59140551 -0.12565657 0.25107756
0.57831341 -0.083949 0.22894724
0.57680392 0.0029334931 0.21645167
0.58273542 -0.095007077 0.22992523
0.58842742 -0.080758832 0.23942764
0.60408443 -0.084540978 0.27079645
0.58259428 -0.086569048 0.23607498
0.58500463 -0.10080096 0.26881999
0.59876436 -0.029210372 0.22462374
0.57827061 -0.070485801 0.22803053
0.59629202 -0.1031319 0.23806332
0.58176327 -0.10935801 0.25806311
0.58302593 -0.083004385 0.23622957
0.60234326 -0.066041976 0.23128504
0.58656824 -0.022312291 0.22877191
0.59593737 0.0042228508 0.20915274
0.58036572 -0.085592195 0.23424809
0.57935613 -0.079066321 0.23310836
0.60472548 -0.019172411 0.21832982
0.59419048 -0.0060053319 0.2182907
0.6065414 -0.033775233 0.22212677
0.58480096 -0.12573834 0.20159271
0.60543931 -0.052789789 0.2273555
0.60501164 -0.03913717 0.22506018
0.58127934 -0.11183826 0.24920723
0.60094661 -0.013868202 0.21936628
0.57810116 -0.081204474 0.21867837
0.57885659 -0.055552315 0.2298888
0.58089298 -0.024309747 0.22696351
0.59522223 -0.10520802 0.26317665
0.57507014 -0.026929783 0.20431677
0.58698875 -0.047986768 0.22684865
0.59556019 -0.047870807 0.22980291
0.58737224 -0.082012661 0.23929045
0.60162133 -0.11859292 0.24474308
0.5869028 -0.040743709 0.23294625
0.58074677 -0.11009598 0.2434406
0.57768732 -0.071977124 0.22661768
0.58109003 -0.093420967 0.27352026
0.58283538 -0.12707473 0.19684672
0.60283995 -0.11583405 0.24239326
0.57992023 -0.066284716 0.23066066
0.58079821 -0.092578627 0.21579215
0.5955556 -0.11723635 0.2557064
0.60421133 -0.043438714 0.22697848
0.58096611 -0.090256535 0.22571528
0.59768331 -0.031467732 0.22619192
0.57634169 -0.046782397 0.21471132
0.5960176 -0.11357659 0.24637204
0.57933867 -0.07943669 0.22335243
0.5772388 -0.097808369 0.26957279
0.58016306 -0.087231241 0.22616361
0.60421264 -0.026901569 0.22112098
0.60475439 -0.0025475943 0.21112865
0.58466661 -0.089081138 0.27593213
0.58411771 -0.091657065 0.23719759
0.60333741 -0.051769532 0.22904916
0.60372454 -0.070496514 0.23109509
0.58912408 -0.034725685 0.22513165
0.59177232 -0.031026289 0.23054513
0.59705871 -0.073227361 0.23321512
0.58310133 -0.10379869 0.21686846
0.59814727 -0.1234147 0.25085056
0.58766448 -0.025709333 0.22360778
0.59691566 -0.13105808 0.24173358
0.58080918 -0.065322921 0.23184665
0.58054143 -0.10241674 0.26794273
0.58485836 -0.10125421 0.24134059
0.58485448 -0.061699931 0.2339808
0.58285928 -0.027024591 0.22872098
0.58873844 -0.046623345 0.22935511
0.59171945 -0.039794348 0.23216787
0.59243304 -0.0067494381 0.21857695
0.59640753 0.010299626 0.19855759
0.57658726 -0.01500717 0.21933933
0.59862852 -0.052152399 0.22936612
0.57684463 -0.063805349 0.21866168
0.59329927 -0.11944763 0.25530857
0.59182096 -0.092215568 0.24091373
0.60702908 -0.069135949 0.23005041
0.59144843 -0.075439781 0.24091089
0.5795626 -0.087163851 0.23130482
0.57849211 -0.058927301 0.2285568
0.59076303 -0.0063176006 0.21580514
0.59053439 -0.080587953 0.23579301
0.58194083 -0.093572125 0.22649813
0.60112059 -0.031867031 0.22574623
0.59392184 0.0083364099 0.20347154
0.58479941 -0.10821898 0.21451727
0.58453387 -0.091206789 0.23775283
0.57928407 -0.081390791 0.23270817
0.58025229 -0.032306392 0.22748709
0.57554412 -0.0287278 0.20730424
0.59449726 -0.11357959 0.24702613
0.5917148 -0.050173003 0.23398156
0.5879699 -0.016328245 0.21981156
0.59943575 -0.0078177061 0.21562637
0.57990038 -0.11857899 0.23672843
0.59234035 -0.0034435089 0.21814178
0.58592039 -0.068030663 0.23529468
0.59487641 -0.090052694 0.24008682
0.58110017 -0.07494615 0.23302278
0.57688957 -0.036492202 0.21041684
0.58973759 -0.01696126 0.22074638
0.57581168 -0.039674345 0.21019815
0.58675927 -0.11278086 0.21490857
0.59594387 -0.10186341 0.23864636
0.58594573 -0.092745237 0.27391431
0.59455246 -0.038219132 0.22712862
0.5789234 -0.11925767 0.23570415
0.58548844 -0.03176355 0.23069362
0.5869211 -0.089784309 0.23872824
0.58133441 -0.091109611 0.22528325
0.58249819 -0.12155391 0.20073919
0.58170527 -0.065216839 0.23240511
0.58619201 -0.12798779 0.20067859
0.59368813 -0.088009521 0.23808165
0.57649285 -0.060708985 0.21940427
0.5814423 -0.099663392 0.27045685
0.57530379 -0.012654399 0.21362069
0.59583181 -0.12062732 0.25352374
0.58930826 -0.0075752535 0.21598825
0.5923366 -0.00019945836 0.21235217
0.5891763 -0.094699875 0.24037023
0.60472226 -0.035861574 0.22428878
0.59930891 -0.012667241 0.21889248
0.58138019 -0.096404836 0.22681443
0.60039502 -0.052300204 0.22853255
0.5765298 -0.034186281 0.21598531
0.58512461 -0.084960938 0.23726411
0.58763915 -0.047334142 0.23029734
0.58034462 -0.091361903 0.21644674
0.60304785 -0.08712668 0.27090144
0.59482878 -0.087423459 0.23847805
0.58081484 -0.11040071 0.24325223
0.58366662 -0.10564153 0.265885
0.59589309 -0.03590567 0.22683118
0.60403973 -0.018036032 0.21914518
0.59413654 -0.11374536 0.25493348
0.58015305 -0.019034671 0.22504549
0.58138317 -0.12044421 0.22802696
0.58435595 -0.012573822 0.21842726
0.58811903 -0.11255146 0.21580651
0.59791934 -0.083947994 0.27734807
0.59524542 -0.11953305 0.25443736
0.58720332 -0.0089908727 0.22540718
0.57895857 -0.097929016 0.27175874
0.60083038 -0.007511884 0.21482566
0.59714234 -0.084302701 0.23796655
0.58423406 -0.10044613 0.2361889
0.58230478 -0.082135327 0.23648429
0.58597606 -0.076075487 0.23886256
0.58290577 -0.10157425 0.21975812
0.5991447 -0.11639847 0.25595078
0.59248585 -0.055069752 0.22892939
0.58673978 -0.00788006 0.21779545
0.59261543 -0.042840939 0.23310702
0.58616978 -0.10798778 0.21542223
0.59335613 -0.03287112 0.2259136
0.59309614 -0.099458441 0.26738006
0.57761079 -0.080662012 0.22016914
0.58087111 -0.11715036 0.23830265
0.58370173 -0.010103028 0.22541682
0.59090883 -0.0041676299 0.21830302
0.58504468 -0.099910468 0.24107848
0.58481294 -0.015949901 0.22091508
0.60167676 -0.045819081 0.22836822
0.57931858 -0.057593271 0.22998393
0.5806883 -0.090171561 0.2310424
0.59127104 -0.038975827 0.22680424
0.59842944 -0.093025267 0.23682222
0.57895845 -0.031843599 0.22713515
0.60156256 -0.10562057 0.23745088
0.57780284 -0.098976724 0.26901308
0.59400189 -0.039763905 0.22764991
0.60173893 -0.077487983 0.2340294
0.59091032 -0.13080901 0.20112568
0.58084363 -0.11436056 0.24846615
0.57561737 -0.041548081 0.22224489
0.58143711 -0.1064278 0.26546344
0.57712781 -0.091881134 0.27388629
0.5951398 -0.061539356 0.22760299
0.60412019 -0.087632455 0.23590505
0.58105552 -0.024133837 0.22718042
0.60027754 -0.11103769 0.24158965
0.59460616 0.0063417945 0.20832041
0.59796125 -0.11241893 0.2422241
0.58801258 -0.12977253 0.20033747
0.58501071 -0.12415016 0.20693681
0.59619337 -0.13087957 0.24214637
0.59548002 -0.084995128 0.27662161
0.59879309 -0.059085995 0.22880481
0.59749454 -0.11523515 0.24683699
0.57526267 -0.015314279 0.2170496
0.59290594 -0.052092526 0.22991592
0.60022533 -0.11056247 0.2602967
0.60512966 -0.033778008 0.22273414
0.58768606 -0.11219208 0.21583962
0.58771193 -0.034104045 0.22532564
0.5846709 0.0023547399 0.21140094
0.57822281 -0.010484313 0.22084601
0.5859611 -0.10371459 0.26718295
0.5890916 -0.035301935 0.23136739
0.60128564 -0.040515795 0.22787267
0.58385289 -0.096761189 0.21704999
0.599783 -0.02146893 0.22197066
0.57681113 -0.037057295 0.2099579
0.60604328 -0.040295657 0.22538495
0.5807994 -0.090555608 0.22675864
0.58120227 -0.091992438 0.27328104
0.60016382 -0.11101798 0.26004502
0.58990812 -0.032923438 0.22487555
0.59815955 -0.020141659 0.22169393
0.58181989 -0.084589101 0.27772069
0.60779029 -0.11779938 0.24029778
0.60208905 -0.044501379 0.22759452
0.59429765 -0.10118213 0.26601914
0.58210605 -0.11138823 0.24592231
0.59267908 -0.11292292 0.25756153
0.60441148 -0.072257496 0.2319667
0.60144806 -0.051116657 0.22881056
0.60278755 -0.030517358 0.2246227
0.58824396 -0.096913286 0.27071753
0.57797503 -0.085074387 0.27665552
0.57912976 -0.003670956 0.21959214
0.58261597 -0.090103932 0.2754319
0.59312272 -0.040378686 0.22765875
0.59388638 -0.12730244 0.24903043
0.60571742 -0.058557965 0.22997651
0.59960324 -0.010023346 0.21854153
0.577438 -0.024646899 0.22350992
0.58695322 -0.10167239 0.24350804
0.5881362 -0.02231767 0.22243306
0.59006459 -0.058720857 0.23491082
0.58540845 -0.097976349 0.23999374
0.59230375 -0.11236001 0.25480211
0.60509133 -0.04198451 0.2266202
0.59077436 -0.049392469 0.23405345
0.57895571 -0.084327295 0.22089238
0.58070254 -0.067424498 0.23159233
0.5888499 0.00053902197 0.21208477
0.59752989 -0.12255011 0.25163728
0.58849621 -0.028924607 0.23034003
0.60257542 -0.051587779 0.22804898
0.58909357 -0.11025464 0.21666999
0.58496672 -0.043198682 0.23280413
0.58490217 -0.087383956 0.27731052
0.57856333 -0.048615228 0.22943634
0.57812303 -0.070645504 0.2278336
0.59885675 -0.12540962 0.24933626
0.58606881 -0.0049782638 0.22505297
0.59484237 -0.073221922 0.23288836
0.57678306 -0.072006755 0.22340456
0.5908106 -0.10157034 0.26730379
0.59478492 -0.10246845 0.23827036
0.58277839 -0.060609862 0.23231915
0.60104775 -0.060299277 0.22836085
0.60444605 -0.11194581 0.24040313
0.58510888 -0.099448122 0.24145399
0.60250241 0.0034022969 0.20688032
0.58826125 -0.091461711 0.27474883
0.58262908 -0.10121408 0.22393557
0.60303438 -0.058228903 0.22754197
0.59562546 -0.087059453 0.27517655
0.60115123 -0.015854578 0.22055846
0.59644282 -0.016004665 0.21995997
0.59386146 -0.1080362 0.26202595
0.5888027 -0.059928313 0.23469704
0.58975548 -0.058175717 0.23514734
0.58432299 -0.065406635 0.23366791
0.59201133 -0.057571694 0.23138073
0.59503716 -0.10476671 0.26352349
0.57784283 -0.081701234 0.21952678
0.58421719 -0.049134485 0.23343647
0.59925592 -0.0013497422 0.21269374
0.59634596 -0.115288 0.25118601
0.5752281 -0.048457116 0.21152569
0.57578075 -0.087373093 0.27513701
0.58822638 -0.09289901 0.23983648
0.58220083 -0.056234032 0.23253132
0.59908074 -0.080474034 0.23714712
0.5918963 -0.049845353 0.2301345
0.58050662 -0.085439697 0.23443612
0.59620738 -0.024688385 0.22347802
0.58343631 -0.084367611 0.27739701
0.58512986 -0.12365038 0.20601608
0.58656859 -0.12669975 0.20318404
0.58826572 -0.034278974 0.22470939
0.60000092 -0.088990368 0.27609676
0.58354461 -0.10498776 0.21622874
0.5868963 0.0098963566 0.20290419
0.58010477 -0.08707758 0.27631894
0.59852618 -0.061574791 0.22864488
0.60315013 -0.039757177 0.22630577
0.57922047 -0.080625862 0.22376511
0.60009784 -0.022764161 0.22269341
0.58398348 -0.08455278 0.23695372
0.57739216 -0.063548267 0.22049813
0.60702747 -0.026589297 0.21970685
0.60218608 -0.11041942 0.25955862
0.60421169 -0.081591815 0.23568664
0.57911444 -0.082158886 0.22663721
0.58320671 -0.090962134 0.23586875
0.59771234 -0.10806978 0.25914025
0.60051638 -0.020095414 0.22074644
0.59690136 -0.0062264376 0.21825938
0.58309573 -0.087253697 0.23583861
0.59397417 -0.058589403 0.2286469
0.58702433 -0.094823413 0.27295911
0.58585429 -0.10573813 0.2439795
0.60369021 -0.049532682 0.22758774
0.58678329 -0.073017418 0.23749135
0.58941746 -0.0936234 0.23994033
0.57837081 -0.026164448 0.22559685
0.59560376 -0.028121859 0.22412854
0.57638437 -0.054931637 0.22496185
0.58010727 -0.089484379 0.21770473
0.59132242 -0.0027824361 0.2177287
0.60131288 -0.10002524 0.23512611
0.5844506 -0.049328212 0.23341861
0.59811044 0.0077130254 0.20718302
0.57297933 -0.014142429 0.2072172
0.5974257 -0.052240148 0.22981891
0.57500446 -0.025664937 0.21874805
0.5861308 -0.12930556 0.19967355
0.58639395 0.001364217 0.21131788
0.57387495 0.015449511 0.20787612
0.60397613 -0.021843435 0.2191464
0.60132724 -0.11461759 0.24351028
0.58137113 -0.089553379 0.21968444
0.58811522 -0.075695872 0.23893569
0.59104627 -0.063699752 0.23582357
0.59095782 -0.083402216 0.23883346
0.60663468 -0.010910117 0.21458665
0.58932114 -0.051883657 0.2284698
0.58142358 -0.10962468 0.24550432
0.58691192 -0.079500988 0.2395435
0.58048153 -0.11757182 0.23778296
0.59458119 -0.059107047 0.22932033
0.5785563 -0.030370083 0.22665347
0.57896018 -0.1158126 0.23826556
0.59706223 -0.1056053 0.26091573
0.58001304 -0.0372568 0.22911991
0.58020759 -0.07997603 0.23424686
0.57258576 0.011589681 0.1989242
0.60801375 -0.074653603 0.23200849
0.5844627 -0.058051225 0.23375611
0.57636589 -0.045760579 0.22359817
0.59819567 -0.047069971 0.22891234
0.57575166 -0.044630561 0.21733606
0.59665298 -0.023096183 0.22301638
0.59336692 -0.025239322 0.22339825
0.59449333 -0.035289485 0.22702347
0.58533043 -0.062325537 0.23512767
0.58830106 -0.015319235 0.21882692
0.5974192 0.007862729 0.20610657
0.6021474 -0.040380687 0.22711226
0.59354162 -0.038331561 0.23287027
0.57985908 -0.11014517 0.25510854
0.57612312 -0.030078111 0.22285824
0.60182929 -0.073464207 0.2325996
0.60022086 -0.11745226 0.25485563
0.58398491 -0.062914714 0.23397189
0.58137137 -0.10490883 0.26519555
0.5990994 -0.034946967 0.22609478
0.58648926 -0.054356851 0.23486114
0.5947172 -0.12525681 0.25117171
