# .PCD v0.7 - Point Cloud Data file format
VERSION 0.7
FIELDS x y z
SIZE 4 4 4
TYPE F F F
COUNT 1 1 1
WIDTH 1390
HEIGHT 1
VIEWPOINT 0 0 0 1 0 0 0
POINTS 1390
DATA ascii
0.54756033 0.002521904 0.23845536
0.5367648 -0.081442609 0.22485565
0.55820763 -0.020314969 0.2263269
0.55132425 -0.095824264 0.22475486
0.54661387 -0.027758744 0.2324471
0.53524023 -0.062596701 0.22305593
0.54639953 -0.0015652201 0.23752451
0.54884261 -0.050602876 0.22878666
0.54492009 0.0034081237 0.25452694
0.54137564 -0.04356217 0.23226754
0.5489378 0.011361305 0.24116525
0.54910523 -0.11698211 0.21435538
0.54709017 -0.1150559 0.21777022
0.5506919 0.020785393 0.19595207
0.5615859 -0.077466249 0.22571634
0.54060555 -0.074810609 0.22774702
0.5551309 -0.036770146 0.23083583
0.55014277 -0.024282506 0.23630367
0.56327218 -0.092111714 0.22585876
0.54908544 0.018376194 0.22498937
0.56452054 -0.077445239 0.22834602
0.54304355 -0.085845783 0.22767882
0.55480015 -0.01126563 0.26870394
0.54489577 0.014467472 0.24646039
0.54936707 -0.11504617 0.215425
0.5494073 -0.065325171 0.2326958
0.54898119 -0.0031962602 0.23273067
0.53044027 -0.033987023 0.21452415
0.546529 -0.090151876 0.22772323
0.54771173 -0.081132576 0.2309514
0.55122256 -0.1209354 0.21105456
0.5469079 -0.0058458759 0.23599209
0.54601663 -0.095346823 0.22632256
0.54737544 0.0032798569 0.25483271
0.53714991 -0.11535285 0.20545682
0.53721821 -0.052409101 0.22621888
0.55273253 0.0081465971 0.24931085
0.55410236 -0.0057770507 0.26176944
0.53929675 -0.1008277 0.22003065
0.56819332 -0.093335658 0.21824059
0.53532529 -0.073477708 0.20830682
0.55772144 -0.10404222 0.22110264
0.55931216 -0.10093496 0.22232658
0.53624016 -0.045717321 0.22792511
0.53568357 -0.10406967 0.21028884
0.54824787 -0.044595193 0.23383521
0.5454818 -0.095925622 0.22560887
0.55175233 -0.12266741 0.21329986
0.55360156 -0.02581132 0.23193622
0.56072325 -0.11345048 0.21534933
0.53633362 -0.076927535 0.22524901
0.54824495 -0.12334304 0.21084096
0.55086303 -0.079251148 0.23132171
0.55154389 -0.0062554493 0.2693018
0.5383532 -0.10844668 0.21390374
0.5457226 -0.070274688 0.23112935
0.54518151 -0.097564116 0.22559246
0.56527692 -0.077811286 0.22270747
0.54172474 0.0089180367 0.24715148
0.55249184 -0.064518139 0.22872528
0.54594916 0.0073742396 0.24169393
0.56109297 -0.028032629 0.2327501
0.56276381 -0.060057271 0.22587445
0.54275745 -0.068612732 0.23076636
0.56146413 -0.089603759 0.22459278
0.5541088 -0.031675737 0.23188202
0.53619915 -0.049589414 0.22504635
0.5512864 -0.0028924369 0.25851834
0.56306726 -0.065668277 0.22881062
0.5405941 -0.055966258 0.22946386
0.53231263 -0.023663819 0.22449732
0.55190104 -0.1196059 0.2128236
0.55291057 -0.10191768 0.22193411
0.5490852 -0.0062879552 0.26043802
0.53856289 -0.036814138 0.23032522
0.55287284 -0.028041897 0.23212814
0.53499526 -0.014934888 0.22966847
0.54534107 -0.067928262 0.23130271
0.54600644 0.022767788 0.19664834
0.533921 -0.011395251 0.2235841
0.53721285 -0.057539344 0.22649105
0.54465628 -0.075941786 0.23043683
0.5527541 -0.06558346 0.23159225
0.54547375 -0.10035273 0.22369167
0.54521155 -0.07546334 0.22973405
0.55812657 -0.010063536 0.27002025
0.56996071 -0.10983054 0.2111771
0.54972547 0.020642314 0.21939179
0.5392735 -0.045902263 0.23076773
0.54383242 0.0011678393 0.23816508
0.54516566 -0.012211826 0.26476976
0.53880435 -0.044218287 0.23040538
0.53523076 -0.074454427 0.20618218
0.5496949 -0.0058065085 0.23616147
0.53800905 -0.096228361 0.21867378
0.54095519 -0.060136735 0.22928716
0.54178196 -0.097201444 0.22268465
0.55359012 -0.090075023 0.225132
0.54070544 0.0067095924 0.25159961
0.53682739 0.0016145895 0.2157933
0.55351943 -0.062166311 0.22848147
0.54871285 0.0044251122 0.25350037
0.53451806 -0.079719566 0.2154492
0.54760438 0.016107189 0.23222347
0.56636655 -0.077621944 0.2263974
0.55566937 -0.011162683 0.26924571
0.55362123 -0.00082343986 0.25614622
0.54505616 -0.10440809 0.22182924
0.55140179 -0.096924059 0.22398502
0.53982466 -0.11103754 0.21684094
0.54285622 0.0022319418 0.23707359
0.55883157 -0.092997342 0.22487754
0.54275048 -0.11826336 0.21443129
0.54202032 0.004388995 0.23686367
0.53576189 0.0058576707 0.21429265
0.53606308 0.011607273 0.24711663
0.53552264 -0.11381627 0.20030496
0.53643489 -0.059225872 0.22618316
0.55106634 -0.12033072 0.21465619
0.5407061 -0.0091774352 0.23427032
0.54468364 -0.042959429 0.23448516
0.53517908 -0.052133929 0.21720888
0.55227834 -0.055056278 0.22960378
0.53503609 -0.057784177 0.22379044
0.54129046 -0.051434644 0.23182708
0.54693842 0.0006581702 0.23810032
0.54609966 0.011030415 0.24132779
0.53560513 -0.10476376 0.20838135
0.56570083 -0.10346085 0.2180972
0.54077905 -0.05027993 0.23105155
0.53506541 -0.058861073 0.21624483
0.55684745 -0.089474849 0.22537076
0.5428884 -0.02255366 0.23504461
0.54311842 -0.092065975 0.22583649
0.53717321 0.010091874 0.24659356
0.55948955 -0.036106698 0.22816049
0.54053468 -0.047131784 0.2318899
0.53719509 -0.1045755 0.21207909
0.53596824 -0.0076998705 0.2314678
0.54237878 -0.099821009 0.22242521
0.55967474 -0.029413005 0.229673
0.55781829 -0.11607512 0.21600118
0.55928928 -0.071550317 0.22779983
0.53597248 -0.085482568 0.22145036
0.54755479 -0.021610312 0.23553483
0.55498606 -0.058905061 0.228607
0.54668158 -0.07735949 0.2304763
0.56121129 -0.079392456 0.22594462
0.54333472 -0.055503704 0.23127396
0.5633471 -0.039730467 0.22557221
0.56127459 -0.066118307 0.22654103
0.5364626 -0.045901917 0.22790812
0.55768156 -0.074481629 0.22669029
0.53765392 0.010289817 0.24835058
0.55377054 -0.0033988762 0.23307955
0.53819406 -0.10551397 0.21598221
0.55659407 -0.080286004 0.22734416
0.54581863 -0.10638109 0.22213554
0.54000986 -0.082168199 0.22741285
0.5588699 -0.04127809 0.22775865
0.56280196 -0.11997544 0.21298644
0.55464488 0.0062930593 0.24971862
0.5507288 -0.070359156 0.2310434
0.55965453 -0.046900567 0.22773509
0.53429496 0.012572379 0.23740754
0.546969 -0.059424456 0.23303579
0.53812444 -0.094339646 0.22148247
0.56239188 -0.087967969 0.22395465
0.53955507 -0.00070547737 0.23449051
0.53578973 -0.059508409 0.22562896
0.55078608 -0.12350758 0.21091519
0.54223353 -0.058753379 0.2309929
0.56716287 -0.066568553 0.22254285
0.55406845 -0.057809874 0.23126517
0.53963816 -0.11614852 0.21161681
0.55323112 -0.07046219 0.22983576
0.55693173 -0.11345572 0.21694258
0.55335742 -0.068116434 0.22865681
0.56884515 -0.11701844 0.21099955
0.54880077 -0.11239084 0.21929993
0.56348646 -0.11026822 0.21612529
0.556629 -0.0030569364 0.25760975
0.54150802 -0.096718438 0.22289419
0.55579829 -0.10841398 0.21921752
0.54068649 -0.047811586 0.23146974
0.55678642 -0.045618076 0.22847986
0.54775876 -0.070202067 0.23092088
0.53703004 -0.041268285 0.2289242
0.55083394 -0.10658345 0.2219675
0.53491479 0.012184136 0.24151336
0.56748843 -0.069929473 0.22160195
0.56278962 -0.10679606 0.21853478
0.55577552 -0.036723182 0.23059303
0.54973519 -0.062987208 0.23324311
0.54167837 -0.11056454 0.2181834
0.53541976 0.0064609321 0.21455435
0.5305059 -0.032572184 0.21560317
0.54440361 -0.045434736 0.23386218
0.54306012 0.016839821 0.23496103
0.55267578 -0.095798776 0.2241447
0.54404563 -0.10945442 0.21891785
0.54972178 -0.048776411 0.22952962
0.56358379 -0.024571171 0.22811466
0.55039912 -0.097665153 0.22309428
0.54211009 -0.078172199 0.22877996
0.53367776 -0.040250305 0.22381853
0.55394769 -0.10695811 0.22065319
0.54080409 -0.1146451 0.21605761
0.53905171 -0.08241269 0.22671896
0.54245037 -0.11400845 0.21740966
0.5458293 -0.062625222 0.23277017
0.55593717 -0.11434117 0.2168217
0.54376274 -0.048703253 0.23246057
0.54941511 -0.017724717 0.23116049
0.55715495 -0.096679375 0.22333947
0.53692091 -0.1138778 0.20912908
0.55987585 -0.12234142 0.21277653
0.55014658 -0.020595592 0.23159178
0.540883 -0.11065875 0.21768762
0.5459078 -0.08212465 0.230606
0.55332112 -0.05816501 0.2285146
0.55140167 -0.10227784 0.22274171
0.53671211 -0.07762289 0.22629219
0.55376118 0.015481937 0.23381874
0.55845946 -0.10507621 0.22016174
0.53786045 -0.057255704 0.22704741
0.55593967 -0.1090469 0.21882634
0.54911274 -0.096764863 0.22294012
0.55458105 -0.048408281 0.23035613
0.54762083 -0.083938561 0.22516289
0.53355902 0.014096542 0.23813763
0.53612727 -0.06897714 0.22423732
0.55947721 -0.10049743 0.22127922
0.54914349 -0.024034584 0.23595104
0.53518999 -0.071119554 0.22486106
0.54257482 -0.091871567 0.22568858
0.54528463 -0.055479687 0.23233671
0.54522693 0.0094071478 0.24659929
0.54873252 -0.037751868 0.23237707
0.53682286 -0.093366869 0.21879585
0.53769964 -0.03676464 0.22854576
0.56974185 -0.11360639 0.211457
0.54440314 -0.11838309 0.21522868
0.54937202 0.010042555 0.2456744
0.55398017 -0.11167129 0.21854663
0.55346608 -0.0053537767 0.26176193
0.54737252 -0.10893312 0.2210855
0.55416822 -0.11152692 0.2167927
0.53859431 9.1864524e-05 0.23456386
0.53685319 -0.096300289 0.21800125
0.53987259 -0.038091384 0.2314382
0.55117756 -0.064725265 0.23273382
0.53650993 -0.078241169 0.22572766
0.56039554 -0.041758195 0.22682367
0.55895364 -0.026097026 0.23075309
0.56315655 -0.10839529 0.21740565
0.53772193 -0.039128385 0.22952044
0.55109125 0.011547618 0.24139208
0.54571348 -0.090248458 0.2272149
0.54104567 -0.10923707 0.21747036
0.534715 -0.023010822 0.23032676
0.55768424 -0.10431686 0.2209509
0.54895669 -0.11610208 0.2179987
0.54325277 -0.095609747 0.22464728
0.54871899 -0.076047249 0.23037542
0.54440975 -0.08890865 0.22750464
0.53603077 -0.084226064 0.22240862
0.54218537 -0.07360179 0.22813225
0.55602288 -0.11959459 0.21650238
0.5372439 -0.069763146 0.22560926
0.56169367 -0.096672453 0.22573553
0.56266654 -0.098627731 0.22107585
0.54222542 0.021334602 0.20686297
0.54425973 -0.080094531 0.22986716
0.54854345 -0.0057886681 0.26533136
0.53564519 -0.11055846 0.20006748
0.54604143 0.019019058 0.22332123
0.54061824 -0.081113629 0.22851697
0.55482942 -0.12088608 0.21490993
0.56544852 -0.09853965 0.21871369
0.53796619 -0.0043567223 0.23365182
0.5447033 -0.122638 0.21225031
0.54034084 -0.022397047 0.2351481
0.54493326 -0.11857268 0.21537292
0.55467695 -0.0066489954 0.27069062
0.55558032 -0.06201205 0.23032847
0.55169803 0.01900278 0.22217976
0.55017841 -0.10746264 0.21846062
0.53581691 0.0093245208 0.21687995
0.56623775 -0.12026332 0.21136431
0.5429697 -0.068788901 0.23075014
0.55601895 -0.071824551 0.22776523
0.53548795 -0.075436421 0.2258959
0.53975719 -0.11877574 0.21109563
0.55286664 -0.1109575 0.21644332
0.56234723 -0.083418228 0.22425729
0.53708971 0.008268184 0.21678276
0.54934174 -0.076264143 0.22787099
0.5360285 -0.086750768 0.21919134
0.54882503 -0.001476205 0.26731065
0.55132902 -0.084363028 0.22583181
0.566504 -0.066901766 0.22261718
0.53535163 -0.053369559 0.21909645
0.5525471 -0.0033676238 0.23236926
0.55311513 -0.08227624 0.22635154
0.54274017 -0.07300137 0.22887258
0.53421062 0.019062351 0.24350391
0.55802315 -0.024283914 0.23100539
0.53958285 -0.046895627 0.231554
0.53741658 -0.11556607 0.2067958
0.53930658 -0.12041316 0.20964605
0.55803406 -0.11608536 0.2148758
0.54384261 -0.063132152 0.23133142
0.533503 0.014886249 0.24410364
0.54345697 -0.10020662 0.22271858
0.54369986 0.015514269 0.23556481
0.55101115 -0.10506826 0.22081375
0.53131348 0.024372516 0.19714807
0.53426522 -0.047688697 0.22270545
0.54692417 -0.0087994235 0.23517509
0.55405962 -0.10798727 0.21899565
0.53601521 -0.044080716 0.22630529
0.53740883 -0.090925902 0.21955751
0.53871089 -0.055063877 0.22776696
0.55357581 -0.11522193 0.21603471
0.54728937 -0.0027127932 0.26557526
0.56924927 -0.11617886 0.21134108
0.56414992 -0.072361603 0.22401434
0.55879164 -0.12045138 0.21314043
0.56689459 -0.12183005 0.21013293
0.53356588 -0.051989947 0.21374379
0.56441563 -0.12208936 0.21226311
0.56232888 -0.064839005 0.22857794
0.54914582 -0.068768091 0.22754402
0.54860264 -0.0012916093 0.26732764
0.55526572 -0.11061924 0.21865843
0.5589363 -0.063765422 0.22932178
0.53196049 0.022469146 0.19609056
0.54473436 0.0097217914 0.24532819
0.54464549 -0.074465252 0.23016705
0.54936087 -0.099911958 0.22474682
0.54707104 -0.10531959 0.22223659
0.55697489 -0.087061621 0.22554336
0.55398345 -0.11072171 0.21736123
0.53411061 -0.072473362 0.2178703
0.54948497 -0.055574324 0.23181136
0.56824094 -0.077116273 0.22398457
0.55610108 -0.081714794 0.22668096
0.54817933 -0.0063005732 0.23633802
0.55330282 -0.059891842 0.22871435
0.56481427 -0.10352544 0.21843113
0.54574448 0.020837491 0.19931342
0.55549854 -0.050454445 0.22980803
0.53951961 -0.06208374 0.22843462
0.53319621 -0.026031265 0.22457759
0.54311192 0.0036863515 0.25384423
0.53776062 -0.10710717 0.21051435
0.54783934 -0.092270501 0.2268624
0.55791986 -0.10115667 0.22153318
0.54177642 -0.079599433 0.22890149
0.55185431 -0.090572953 0.22620663
0.56554312 -0.07201843 0.2223924
0.5360319 -0.047218565 0.22670591
0.55799443 -0.055801548 0.2279873
0.56388849 -0.090064786 0.22204658
0.53434712 -0.09384308 0.2157643
0.55198532 -0.041151412 0.22949013
0.53402674 -0.045804039 0.22396813
0.5360536 -0.081530966 0.22305593
0.55694461 -0.10545852 0.22056654
0.54268861 -0.084256977 0.22866081
0.55493867 -0.070551857 0.23045078
0.56636822 -0.079913042 0.22221152
0.54673904 -0.028793707 0.23521119
0.55051786 -0.10276658 0.22117971
0.53518218 -0.033697821 0.22404574
0.55397022 -0.025483146 0.23198102
0.55264449 -0.04261855 0.22956294
0.55194479 -0.022755804 0.23200703
0.53653014 -0.10059313 0.21195418
0.56081593 -0.046205707 0.22642511
0.54089516 0.0083141224 0.24918133
0.55780804 -0.1019835 0.22107635
0.5545125 -0.09898755 0.22652754
0.53958064 -0.063636951 0.22867475
0.54131895 -0.067798302 0.22924292
0.55581498 -0.020358816 0.22865607
0.55990779 -0.08518786 0.22545041
0.55788594 -0.02834565 0.23107667
0.54700547 0.0016364023 0.25608018
0.5404253 -0.096331231 0.2225996
0.53899038 -0.027537903 0.23198481
0.55076468 -0.060757965 0.23273289
0.53471833 -0.078275405 0.21662204
0.55095911 -0.04000099 0.22937889
0.54580742 -0.054348838 0.22778168
0.54321736 -0.043695603 0.23315617
0.55141431 -0.074418947 0.22812286
0.53457212 0.01431573 0.24560912
0.54983199 -0.044597242 0.22954124
0.54593229 -0.014812702 0.23315716
0.53082043 0.019072592 0.23222101
0.53620631 -0.0050705574 0.23082857
0.54283923 -0.10332883 0.22143731
0.53622508 -0.10248153 0.21310413
0.5651862 -0.071439013 0.22414029
0.56401008 -0.11746553 0.21400741
0.5498842 -0.11993757 0.21222621
0.5644415 -0.059073735 0.22576746
0.53435373 -0.094628319 0.2151885
0.537067 -0.1152721 0.2081787
0.5448342 -0.12249631 0.21242502
0.54441524 -0.066892587 0.23157063
0.54492837 -0.030601909 0.23142403
0.55421162 -0.015627097 0.23166375
0.54354328 0.020039329 0.20078629
0.5461489 0.0002576409 0.25608709
0.55537516 -0.018750191 0.2265051
0.54578525 -0.0011044404 0.25714543
0.53868598 0.0088398801 0.24918732
0.56464797 -0.073172413 0.22331052
0.54136413 -0.013437316 0.23418677
0.56861323 -0.099225894 0.2206376
0.54916644 -0.068764202 0.22790636
0.53801054 -0.10765313 0.21430559
0.53293318 -0.030056801 0.22281997
0.54392409 -0.043435633 0.22775882
0.55301946 -0.12729049 0.21015829
0.56057262 -0.11933056 0.2143181
0.548913 -0.096361488 0.2257729
0.55279964 -0.093078546 0.22487885
0.5421741 -0.00016748879 0.23629111
0.54160684 -0.015631489 0.23405142
0.5383575 -0.016675791 0.23289278
0.53344923 -0.036163956 0.2226508
0.54436886 -0.044324268 0.22827442
0.56131679 -0.1258011 0.2113058
0.55980247 -0.060551647 0.22806451
0.5652405 -0.086982265 0.22543807
0.53904212 -0.11265093 0.2152312
0.55349565 -0.091813795 0.22481745
0.55814648 0.010220382 0.24688886
0.53225297 -0.038479373 0.22165476
0.55611092 -0.019332007 0.23109506
0.56110013 -0.093653567 0.22352242
0.53866148 -0.093758442 0.22219911
0.55121726 -0.087278053 0.22910081
0.54735291 0.021062752 0.19974826
0.5416339 -0.0079303319 0.23433429
0.55683899 -0.11082441 0.2179969
0.54506814 -0.037114393 0.23359019
0.5331226 -0.033563569 0.22168761
0.55734462 -0.046164878 0.22791158
0.54912329 -0.04343598 0.22930288
0.54297805 -0.0087477611 0.23445161
0.5417735 0.0028213144 0.25499135
0.54892439 -0.10321642 0.22342822
0.55017525 -0.0062051783 0.2361248
0.54788834 -0.04757211 0.23279954
0.55205452 -0.12430684 0.21113849
0.54805005 -0.031319167 0.23405056
0.55921263 -0.050765637 0.22805455
0.55294001 0.0091551133 0.24727982
0.56242275 -0.073010519 0.22559054
0.57115608 -0.11712012 0.20996456
0.56587523 -0.079110399 0.22290827
0.53163534 0.015835879 0.22485629
0.53961045 -0.043771248 0.23116721
0.53954393 -0.11709021 0.2122249
0.55579317 -0.061361235 0.23092273
0.54298198 -0.12221092 0.21164286
0.5509693 -0.094235465 0.22573684
0.5474962 -0.034994286 0.22891037
0.5644902 -0.065907657 0.22407097
0.53550816 -0.041524045 0.22656651
0.53707349 -0.1160413 0.20761466
0.54640794 0.0052598584 0.23850442
0.55021787 -0.035629746 0.23338549
0.53942192 0.0026633251 0.23555124
0.55148548 0.0037067975 0.25151318
0.54903913 -0.062233958 0.22783774
0.55735111 -0.020937616 0.22965461
0.53872102 -0.091921218 0.22223312
0.54284114 0.00055117463 0.2363553
0.56146449 -0.027485648 0.2322284
0.53128856 -0.017104972 0.22337413
0.5389179 -0.090705089 0.22188252
0.54106665 -0.10356963 0.21895629
0.53706491 -0.10526988 0.21285039
0.55546212 -0.11209314 0.21714732
0.5437389 -0.11101748 0.21895358
0.54525328 -0.035414446 0.22835425
0.53665882 -0.037891023 0.22715688
0.54584533 -0.10278109 0.22345255
0.56433135 -0.11264562 0.21432066
0.53675187 -0.093049109 0.21899225
0.56038725 -0.12284236 0.2122559
0.55414706 -0.11930558 0.21571028
0.56539881 -0.11456906 0.21394341
0.53483868 -0.028616168 0.22625747
0.53586209 -0.07864096 0.22373214
0.53928524 -0.10743798 0.21514751
0.53500533 -0.09329202 0.21517028
0.55840123 -0.092574768 0.22407177
0.54188937 -0.0025815971 0.23571074
0.56561744 -0.089198738 0.22060192
0.53718954 0.0097872689 0.24773091
0.55134439 -0.028412893 0.23525371
0.55053735 0.017521407 0.22875464
0.55261672 -0.01027785 0.26826248
0.54899263 -0.086329393 0.23070036
0.53604108 0.010868279 0.23843944
0.54773611 -0.014213396 0.26499334
0.55600196 -0.096489534 0.22394063
0.53477025 -0.075003944 0.21771015
0.56441122 -0.091862105 0.22197556
0.53454697 -0.051167361 0.21893661
0.55132592 -0.065389432 0.23232332
0.54576921 -0.019608773 0.23279181
0.53988051 -0.083100528 0.22665569
0.53440559 -0.099291682 0.20906897
0.53520423 -0.079045147 0.221728
0.54545009 -0.050543938 0.22900651
0.54090738 -0.034593463 0.23186681
0.56012821 -0.074303366 0.22576876
0.53215665 -0.036092315 0.22065756
0.5530526 -0.1234183 0.21125977
0.55215627 -0.097291335 0.2241184
0.53881705 -0.022286648 0.23441288
0.54759204 -0.11949518 0.21476391
0.53355491 -0.030446917 0.22421873
0.54202986 -0.094594821 0.22474065
0.53530782 -0.029874364 0.22558062
0.54739845 -0.037451781 0.22869831
0.5382576 -0.043025799 0.2296388
0.5553115 -0.089862488 0.22578123
0.53599405 -0.036312003 0.2266122
0.56261331 -0.073840894 0.22500426
0.5401597 -0.061803408 0.2289845
0.55114138 -0.0052643153 0.26846397
0.55897796 -0.080390893 0.22627649
0.54299051 -0.039540973 0.22803654
0.53683317 -0.021794425 0.23371278
0.53517956 -0.084474027 0.22041611
0.53406495 0.014239187 0.22633381
0.54173344 -0.11516599 0.21617138
0.55684209 -0.018077739 0.21778692
0.5324688 -0.021926688 0.22721604
0.5563069 -0.023425376 0.23100677
0.54066098 -0.10684557 0.21767525
0.55087233 -0.054573108 0.22924581
0.56223035 -0.10099429 0.22106169
0.54416043 -0.12093563 0.21321534
0.53479254 -0.07398504 0.22253393
0.54860699 -0.11252327 0.21603811
0.53511679 -0.098342992 0.21150345
0.56888789 -0.10690692 0.2134106
0.5570361 -0.025936365 0.23165838
0.5394547 -0.11018907 0.21591531
0.53180909 0.013483504 0.21374036
0.56820858 -0.092053421 0.21777113
0.55627894 -0.065511301 0.22779644
0.55949503 -0.12647013 0.21166511
0.54468364 -0.027950371 0.23473179
0.54632598 0.021705106 0.21759795
0.55829799 -0.11672999 0.21577515
0.54822409 -0.039566301 0.22955091
0.55073708 -0.10309941 0.22313271
0.5514552 -0.073537119 0.23044142
0.53466994 -0.018210461 0.23113756
0.53898442 0.00097327167 0.23542322
0.54972464 -0.072360747 0.22759973
0.5400725 -0.053171508 0.22989289
0.55568951 -0.059432123 0.23093712
0.55277669 -0.070148565 0.22766285
0.56607944 -0.090979271 0.22390448
0.53359878 -0.027121048 0.22534265
0.55088544 -0.098456919 0.22240698
0.54151106 -0.10911833 0.2178074
0.53066933 -0.036770619 0.2152999
0.54601353 -0.049309898 0.22827691
0.53665501 -0.010191842 0.23270406
0.55712736 -0.11447478 0.2168116
0.54687184 -0.016989013 0.23267972
0.54671228 -0.10964762 0.2202045
0.55066687 0.02166241 0.19156002
0.55610204 -0.10358059 0.22023965
0.53323722 -0.029727772 0.22322567
0.55001414 0.020423247 0.20030443
0.55075639 -0.093282178 0.22632603
0.56194729 -0.043448336 0.22638471
0.54515785 -0.0049939109 0.2356827
0.55370569 -0.074771293 0.22818778
0.53764123 -2.1020034e-05 0.23396976
0.5599032 -0.1008919 0.22210394
0.53671777 -0.10854477 0.20483474
0.56234384 -0.077183574 0.22432502
0.53382647 -0.040089395 0.22401693
0.55946958 -0.11625176 0.21416996
0.5604763 -0.041161049 0.2271536
0.53483236 -0.062126458 0.21506411
0.53220272 -0.034392063 0.21922994
0.54999638 -0.11910787 0.21268462
0.53803122 -0.052412685 0.22800532
0.5591861 -0.091143653 0.22461347
0.53899831 -0.054752864 0.22815044
0.54943293 -0.11750301 0.21722035
0.54710168 -0.023733336 0.23643234
0.55488807 -0.070375144 0.23034132
0.55132276 -0.027554099 0.23307809
0.52979141 -0.036211397 0.21388862
0.53436321 -0.072001681 0.20617349
0.5372746 -0.097998753 0.21832734
0.53545326 -0.071992986 0.22571112
0.55070519 -0.095310487 0.22480212
0.56613541 -0.11224318 0.21380632
0.55553961 -0.10719253 0.22010134
0.54059106 -0.062161364 0.22895157
0.55205005 -0.015918547 0.2353766
0.55446315 -0.086491287 0.22570406
0.53902018 -0.086804993 0.22346145
0.55441761 -0.065500692 0.22856008
0.53535587 -0.080491744 0.22074197
0.54823267 -0.10086011 0.22479597
0.56022549 -0.061938364 0.22883236
0.54371464 0.022854511 0.1937521
0.55149901 -0.12625091 0.21018758
0.54149294 0.0030610079 0.2369546
0.53826058 -0.030957146 0.22907098
0.53536385 -0.050426621 0.22262764
0.54926133 0.010997929 0.2412672
0.54583436 -0.013136402 0.23409793
0.53894365 -0.10947706 0.21481335
0.55319953 -0.12449536 0.21054149
0.55477941 -0.10918875 0.21945322
0.54621077 -0.064752005 0.227494
0.53519225 -0.016976897 0.23097421
0.56514311 -0.11765207 0.21341665
0.54453522 -0.10059223 0.22301196
0.5668723 -0.067700289 0.22321996
0.54116112 -0.05660481 0.23064999
0.54997039 -0.093204036 0.22350466
0.54575211 0.010518619 0.24181594
0.53853911 -0.079522483 0.22722323
0.55936867 -0.09695778 0.22348216
0.56514925 -0.099811293 0.21930917
0.56499469 -0.11540864 0.21360189
0.54922712 -0.010411488 0.23521999
0.53356206 0.014932279 0.2306357
0.54151452 -0.097490847 0.22232781
0.55819196 -0.037733439 0.22895989
0.53002238 -0.030407762 0.21694092
0.55100411 -0.10135723 0.22183388
0.53700525 -0.049142368 0.2258082
0.53463978 -0.086501338 0.21592435
0.55814528 -0.018925071 0.22033717
0.53474754 -0.04330983 0.22619466
0.53802168 -0.013907519 0.23204848
0.54472959 -0.019990571 0.23299687
0.53658277 -0.028223401 0.22883534
0.54311389 0.019139364 0.2308667
0.55334216 -0.010330411 0.26861253
0.54762983 -0.05771827 0.22869426
0.536192 0.0067354143 0.23411784
0.54670161 -0.0048160297 0.26506186
0.55114776 -0.10904074 0.21709074
0.54232752 -0.027432462 0.23385113
0.53966528 -0.10469807 0.21737266
0.54607636 -0.0029767165 0.23284306
0.54524559 -0.016800499 0.23347935
0.55193698 -0.056317858 0.23122361
0.54609406 -0.12304113 0.21269828
0.53252077 -0.028096348 0.222692
0.53443408 0.025474232 0.2415875
0.55255586 -0.078253232 0.23019123
0.53811723 -0.11462279 0.21057397
0.53533506 0.0070714718 0.23255309
0.54234028 -0.083450191 0.22906935
0.53516197 -0.052779693 0.22078337
0.54815483 -0.028016306 0.2351902
0.55862153 -0.046071846 0.22743066
0.53916079 -0.11098945 0.21652062
0.56374103 -0.093734987 0.22236082
0.56036335 -0.060532391 0.22911568
0.53406399 0.014120431 0.24383931
0.54908341 -0.035547551 0.23283811
0.53689665 0.0029918 0.21549313
0.55637932 -0.031510308 0.23102681
0.53452063 -0.065027401 0.21411011
0.56332934 -0.091116577 0.22288546
0.55843961 -0.11524282 0.21521851
0.54105484 -0.041706365 0.23211145
0.56264895 -0.079844862 0.22506359
0.56520009 -0.089142025 0.2220567
0.5413478 -0.041389342 0.23250234
0.53608412 -0.033750758 0.22584338
0.55260456 -0.095479712 0.2243419
0.54976052 -0.10019327 0.22182243
0.54638988 -0.085775606 0.22952408
0.54411262 -0.077332243 0.22911958
0.54494351 -0.08582212 0.22514224
0.56364977 -0.061702114 0.22574343
0.53705251 -0.089330584 0.22054352
0.54723293 -0.0021487065 0.25849026
0.54754603 -0.064076729 0.22734335
0.53082824 -0.034015134 0.21471134
0.53640372 0.010213332 0.23679727
0.55868459 -0.089253515 0.22720678
0.55358207 -0.10373903 0.22147888
0.53994483 -0.11742291 0.21219429
0.56158173 -0.064342 0.22856912
0.54511839 -0.015668301 0.23455289
0.54413968 -0.086237818 0.22797708
0.55779248 -0.10784423 0.2187556
0.56237727 -0.10207134 0.22034341
0.56579828 -0.12137173 0.21087384
0.56485832 -0.092928663 0.2211373
0.55735683 -0.091551714 0.225135
0.55183059 -0.06091227 0.23183693
0.56286043 -0.050193757 0.22562267
0.55102164 -0.004725717 0.23218386
0.53989697 -0.097682431 0.22131953
0.55025887 -0.0054047666 0.23209117
0.53678131 -0.11274622 0.2044757
0.54574615 -0.0045789694 0.26472467
0.55934936 -0.029436713 0.22979556
0.54696995 -0.10859903 0.22111624
0.54612863 -0.012998245 0.26487774
0.54613358 -0.063023642 0.22857986
0.5407728 0.0065873996 0.2364637
0.5522052 0.0061443276 0.24958962
0.55044889 -0.068943441 0.22874901
0.5667454 -0.12406483 0.21007822
0.55035734 -0.033984315 0.23081015
0.55233788 -0.017583627 0.23565574
0.54643804 0.0049209092 0.25414759
0.56162536 -0.031666253 0.22747846
0.54593354 -0.026461408 0.2351469
0.55335689 -0.10123201 0.22320783
0.54771811 -0.053625982 0.22866216
0.54898816 -0.12438424 0.20989348
0.54955703 -0.013912758 0.26273921
0.56725717 -0.06937781 0.22203554
0.54474348 -0.088154495 0.22823994
0.56221706 -0.12001805 0.21320674
0.54917276 -0.0021417777 0.2683593
0.54124177 -0.055682618 0.23002021
0.53847802 -0.053610966 0.22736071
0.56641102 -0.075928658 0.22525653
0.56456631 -0.046519931 0.2246545
0.55254835 -0.010770652 0.26786226
0.53315371 -0.040384024 0.22343901
0.53442109 -0.097504631 0.21174911
0.53452981 -0.052329913 0.21536297
0.53986537 -0.10770657 0.21661362
0.55147284 -0.020498959 0.23109223
0.56366926 -0.10333692 0.21902813
0.54324239 -0.11391465 0.21790333
0.53827441 -0.10528426 0.21484138
0.54827166 -0.098752335 0.22501861
0.5365414 -0.0557363 0.22610812
0.55165046 -0.020440472 0.23588628
0.54751062 -0.058599632 0.22820731
0.54746723 -0.093621269 0.22701976
0.53620863 -0.10812502 0.2035182
0.56634372 -0.084792815 0.22173683
0.53894991 -0.064730264 0.22753008
0.53087378 0.017413149 0.22561181
0.54162294 -0.089173757 0.22581546
0.5347023 -0.072899811 0.20704593
0.55305797 -0.0098664714 0.26237878
0.5453577 -0.076786958 0.23018917
0.54421508 -0.11241841 0.21817522
0.53725028 -0.11184872 0.20944931
0.54258996 -0.032654084 0.23284605
0.55940014 -0.038238563 0.22814332
0.53948778 -0.052518208 0.22870812
0.54883051 -0.11305654 0.21561898
0.53479201 -0.077096693 0.21482445
0.53922099 -0.034994874 0.22931345
0.5566231 -0.088939734 0.22579135
0.56665528 -0.11154956 0.21276569
0.53198218 0.014422945 0.21858628
0.55042356 -0.052257717 0.22835691
0.53907156 -0.084768377 0.2249916
0.54698026 0.012539458 0.2386765
0.53450811 -0.049753077 0.21725249
0.5334329 -0.052920967 0.21163227
0.54426491 0.017666399 0.23007497
0.53734469 -0.028278602 0.22920296
0.56243759 -0.11838739 0.21410768
0.55846488 -0.024931163 0.23166941
0.55692738 -0.052977886 0.22891298
0.5481627 -0.033924162 0.2335424
0.54092914 -0.087566808 0.22662921
0.53637081 -0.036339298 0.22679397
0.55165899 -0.0083226403 0.23221232
0.53838003 -0.067357533 0.22663961
0.53519422 -0.08177001 0.22106561
0.56405318 -0.068189941 0.22410853
0.53615683 -0.11017827 0.20197554
0.54761463 -0.038169704 0.23282304
0.54355395 -0.062623091 0.23155227
0.53863651 -0.1002157 0.21877496
0.55249643 -0.011377162 0.26874027
0.54616481 -0.10793083 0.22117771
0.54757458 -0.053437207 0.23236421
0.55428129 -0.059532505 0.22852136
0.54258227 -0.038329411 0.22770235
0.54891688 -0.064820193 0.22755751
0.54161876 -0.00030919031 0.23588894
0.5365389 -0.09209583 0.21958144
0.5470472 -0.034355603 0.23397955
0.54443604 -0.0025399816 0.25867516
0.55815721 -0.11609968 0.21616472
0.54729015 -0.0050265109 0.26522198
0.54102516 -0.036308359 0.23201804
0.55417329 0.016196869 0.23062053
0.55425143 -0.051343586 0.23072056
0.54108542 -0.052913051 0.23062643
0.54837245 -0.073312044 0.22758929
0.53860199 -0.00081836194 0.23389642
0.54588759 -0.11405782 0.21786202
0.54140586 -0.069741808 0.22785561
0.55324316 -0.11551811 0.21599428
0.55697346 -0.11229324 0.21833864
0.54698431 0.020824524 0.20006417
0.54801226 0.0087877968 0.24963671
0.53250998 -0.04411443 0.22034173
0.53651345 0.011158644 0.24161358
0.5344016 -0.068522908 0.21552745
0.53670895 -0.04342097 0.22851725
0.55257779 -0.11611047 0.21591341
0.5435009 -0.097442359 0.22478154
0.54797316 -0.087486096 0.224097
0.53028417 -0.036742717 0.21511407
0.53700894 -0.11522775 0.20682693
0.53669184 -0.013098817 0.23193242
0.54397726 0.01948953 0.22644271
0.53576046 -0.020113491 0.23302472
0.5549795 -0.093451038 0.22648105
0.53632802 0.0096672541 0.23635378
0.54171544 -0.011914484 0.26477864
0.54308271 -0.078717358 0.22889902
0.55579782 -0.090654254 0.22509393
0.55207926 -0.03480833 0.23082741
0.53275412 0.017569777 0.24297544
0.53689623 -0.065720484 0.22569883
0.5479486 -0.070882946 0.22983235
0.5353772 0.0041374196 0.2331177
0.56106526 -0.072956048 0.23067568
0.5351724 -0.07155294 0.20693825
0.53740382 -0.10529443 0.21301392
0.54407787 0.0022094455 0.23684521
0.55287927 -0.066206835 0.22753298
0.55134368 -0.055271674 0.23167749
0.5630641 -0.086064614 0.22358708
0.53741074 -0.049246255 0.22865559
0.56042808 -0.02199403 0.22776082
0.53886914 -0.063585408 0.22833146
0.54840142 -0.038917542 0.22862716
0.53202128 -0.025764413 0.22279137
0.5486086 -0.11032487 0.21737723
0.54254264 -0.11077899 0.21848841
0.53492606 -0.059865709 0.21542895
0.55275768 -0.10740554 0.21865392
0.53612226 -0.039887141 0.22674993
0.54373467 -0.034618299 0.22947887
0.54835713 -0.044381533 0.22904921
0.54782373 -0.069436722 0.2276932
0.56462181 -0.061345141 0.22555171
0.5586471 -0.098710649 0.22584465
0.5487656 -0.077510476 0.23148185
0.54177308 -0.03636254 0.2323789
0.5346542 0.013948482 0.24538213
0.53289598 0.016106732 0.23114522
0.55712497 -0.066600718 0.22942919
0.55553585 -0.090397604 0.22536065
0.5355463 -0.03679654 0.22601475
0.53600156 -0.014295435 0.23067959
0.55114907 -0.096507587 0.22348399
0.565714 -0.081463501 0.22667447
0.5371235 0.010315391 0.23996502
0.55315107 0.01902177 0.22536576
0.54615122 -0.012138362 0.26429838
0.54065996 0.0043043373 0.23607214
0.5430848 -0.080821477 0.23005448
0.54505587 -0.027109314 0.23555182
0.53957385 -0.10852057 0.21721017
0.5461266 0.016935442 0.22848679
0.53288764 0.016879344 0.24389099
0.54571044 0.024075994 0.24118605
0.55041981 -0.1175307 0.21471199
0.53272676 0.016787563 0.23020348
0.55002195 0.014435754 0.24856456
0.5448209 -0.0026126909 0.23725896
0.55027133 -0.096178241 0.22775933
0.56397724 -0.06648992 0.22517659
0.53498048 -0.072979741 0.20984277
0.55124843 0.02097179 0.19049422
0.54733551 0.016950868 0.22668418
0.53181422 -0.022197451 0.22395875
0.53677273 -0.013460857 0.23170866
0.54843116 -0.086330846 0.22460821
0.55279982 -0.091515996 0.22458658
0.5394451 -0.047888845 0.23074739
0.54631716 -0.044594098 0.2341546
0.54900247 -0.086569682 0.22422209
0.53456348 -0.07390064 0.20623313
0.55428588 -0.089984663 0.22523713
0.54266423 -0.12369975 0.21037412
0.53487027 0.0035663056 0.21347764
0.5388459 -0.11700592 0.21055962
0.53483105 -0.059262585 0.22258979
0.56200355 -0.070016056 0.2295994
0.55043018 0.013490099 0.24808569
0.534073 0.013290502 0.22563817
0.56433457 -0.10830947 0.21696195
0.53509396 -0.039151117 0.2253885
0.54608279 -0.07266771 0.22770154
0.56119758 -0.026233902 0.22972484
0.54525685 -0.030577978 0.23130031
0.5564518 -0.10439069 0.21982943
0.56479889 -0.082961984 0.22350308
0.54761791 6.6175831e-05 0.25685778
0.53164989 -0.034375306 0.2175927
0.5460456 -0.10959932 0.21988285
0.54539901 -0.0033263981 0.25878313
0.53880799 -0.067712687 0.22660695
0.5545488 0.011449728 0.24124792
0.5443083 -0.0075259889 0.23471265
0.54440761 0.008972168 0.24456134
0.54805589 0.018299455 0.22548176
0.55295044 0.01195103 0.23905353
0.54355401 -0.024198057 0.23554146
0.54005826 -0.10349657 0.21846974
0.55862808 -0.070504993 0.22747083
0.54270148 -0.088006549 0.22725467
0.53720051 0.0060880524 0.21658705
0.5591405 -0.085039996 0.22461912
0.55394214 -0.084379256 0.22596613
0.54040772 -0.032840632 0.23153885
0.56603032 -0.10751598 0.21548709
0.5424453 0.021119943 0.20308915
0.54541409 -0.047265153 0.22853096
0.5617075 -0.02341285 0.22998495
0.54626447 0.016033456 0.23029917
0.54185712 0.022509962 0.21133795
0.54417777 0.00011071115 0.25702986
0.54476821 -0.06691815 0.23174092
0.56395638 -0.024022592 0.22759144
0.54596847 -0.028345799 0.23111658
0.53158981 -0.040506907 0.21980345
0.56185371 -0.07211712 0.22978172
0.56863177 -0.098521195 0.22016281
0.53173834 -0.01474467 0.22264987
0.53947526 -0.10606803 0.21626009
0.56564093 -0.086723439 0.22509485
0.53553003 -0.043842919 0.22757411
0.55516219 0.012580532 0.23641393
0.53786677 -0.10494595 0.21487249
0.55064195 -0.09047208 0.22698462
0.55233955 -0.017293759 0.23143624
0.55382156 -0.12312225 0.21407327
0.54548347 -0.018783342 0.23515703
0.55043519 -0.099592648 0.22190441
0.56169486 -0.074561425 0.23019525
0.53771502 -0.11095607 0.21035698
0.56656623 -0.072467923 0.22293214
0.56816584 -0.12422949 0.20937979
0.55736816 -0.084891498 0.22545588
0.53701967 -0.061902624 0.22722837
0.56501985 -0.07619831 0.22255425
0.53827953 -0.048306003 0.22981496
0.56400144 -0.11077269 0.21560101
0.5444091 0.016768517 0.23188187
0.53885233 -0.1177687 0.21000028
0.5510565 0.014597962 0.23556443
0.55144286 -0.10708881 0.22192101
0.54252714 -0.097564213 0.22281639
0.54580784 -0.00024456091 0.25656611
0.55877554 -0.097000994 0.22370556
0.54005682 0.0071410579 0.25159195
0.54513121 -0.033912022 0.22932129
0.54343659 -0.067951716 0.23026468
0.54497004 -0.1150981 0.21795614
0.547916 -0.10314337 0.22294168
0.52945304 0.018277122 0.22548781
0.54659122 -0.094177917 0.22613958
0.5558663 -0.070706211 0.22851105
0.53730792 -0.023919778 0.23239917
0.55233687 -0.12088016 0.21493176
0.53695142 -0.015294206 0.23180518
0.53336757 -0.047953609 0.21796885
0.5376792 -0.082313247 0.22605671
0.54087001 -0.07871528 0.22771467
0.56173694 -0.078573331 0.22497801
0.56069642 -0.085960433 0.22464749
0.54491007 -0.05753497 0.23197298
0.56968707 -0.11938752 0.20920123
0.55142826 -0.068888612 0.23114987
0.53797895 0.0036795579 0.21658063
0.53202766 -0.033521831 0.21842483
0.5397945 -0.089361817 0.2233434
0.54865754 -0.0037516272 0.26021507
0.54321307 -0.077777416 0.22966237
0.54290485 0.02197038 0.21124603
0.54932904 -0.093528397 0.22357704
0.53456223 -0.012600774 0.22574507
0.54193938 -0.11608801 0.2156015
0.56292695 -0.031571422 0.22698823
0.5539633 -0.022305528 0.23143156
0.54462487 -0.057843585 0.23159245
0.53305572 -0.046557546 0.21883172
0.563595 -0.10388622 0.21872464
0.56093788 -0.024462314 0.2317252
0.5495609 -0.12605284 0.20987985
0.55796778 -0.027740851 0.23141083
0.55171627 -0.056134667 0.23124047
0.55771852 -0.1233059 0.2130971
0.54690111 -0.028040079 0.23215471
0.54407942 -0.073467173 0.23060004
0.54920751 -0.10808295 0.21849139
0.55125481 -0.11897219 0.2157595
0.53682357 -0.051095661 0.22562306
0.5371359 -0.08462131 0.22270933
0.55602729 0.0091526005 0.24723126
0.54534036 -0.10497426 0.22291718
0.56416303 -0.086286396 0.22671308
0.54312378 -0.10533983 0.22010612
0.53608775 0.0071838326 0.21544573
0.55775768 -0.0049583171 0.26348102
0.53705913 -0.090115815 0.21996772
0.55745959 -0.12736125 0.21073458
0.53531849 -0.09516906 0.21530661
0.53525811 0.012686457 0.2380079
0.55547041 -0.11078909 0.21864282
0.55906564 -0.11492623 0.21514788
0.54697019 -0.003243967 0.23659179
0.54065508 0.023130607 0.19105969
0.54124832 -0.029617989 0.23301366
0.53055197 -0.018150024 0.22356164
0.54702544 0.021858368 0.2171964
0.54722196 -0.005506041 0.23641112
0.54764766 0.020487431 0.22038558
0.54719806 0.020840161 0.19868819
0.54550278 -0.055660769 0.23232006
0.54078799 -0.11028567 0.21655864
0.54654396 -0.07750839 0.23029271
0.53886241 -0.092554145 0.22184193
0.55312365 -0.098611899 0.22366259
0.54698348 -0.035729583 0.2329317
0.5586884 -0.06488543 0.22838131
0.55212545 -0.095601961 0.22399496
0.54755002 -0.0081221545 0.23601018
0.54292434 -0.10078302 0.22200786
0.56396616 -0.085998893 0.22324733
0.5385043 -0.1024615 0.21840054
0.55688936 -0.10056868 0.22655562
0.54394573 -0.11194342 0.21838129
0.53926432 0.0020919305 0.25527686
0.55926168 -0.063721731 0.22760466
0.56452143 -0.11796647 0.21348679
0.54067791 -0.079992615 0.22802265
0.54752535 0.013840669 0.23630671
0.56709552 -0.088069566 0.21942328
0.54314184 -0.014365141 0.26706433
0.53397679 -0.049027853 0.21750282
0.53765559 -0.094646074 0.21965173
0.53746921 -0.07720305 0.2270077
0.54722148 -0.061171528 0.23323545
0.53519678 -0.071924008 0.22427118
0.5507701 -0.11680256 0.21710047
0.54438251 -0.04194745 0.23371707
0.55390364 -0.1214527 0.21209936
0.55334616 -0.036554292 0.2304744
0.55377638 -0.11150214 0.21856219
0.53505218 -0.075868472 0.21857677
0.53130555 0.018505296 0.22935572
0.5463255 -0.086239867 0.22914703
0.56888366 -0.11458521 0.21246627
0.53725767 -0.09586259 0.21854095
0.53392988 -0.02959965 0.2250448
0.53469032 -0.073495492 0.21742685
0.55373132 -0.055677414 0.23130441
0.54978222 0.018826563 0.22439215
0.55384713 -0.047909256 0.22956556
0.54919404 -0.004660924 0.2665121
0.54234862 -0.11137223 0.21794672
0.53548604 -0.070442952 0.22416556
0.53498316 -0.052706122 0.21532837
0.54167753 -0.11637141 0.21525207
0.54694182 -0.073305778 0.23089987
0.54844832 -0.023457637 0.23600411
0.55097264 0.0033578877 0.25323817
0.54563236 0.0055590295 0.2527965
0.56724077 -0.065992467 0.22286114
0.53801978 -0.083267033 0.22418219
0.53809077 -0.034912992 0.22876811
0.54281914 -0.11857071 0.21424133
0.56401044 -0.080859959 0.22387168
0.53775775 0.008991085 0.21767414
0.54332125 -0.068814367 0.23091976
0.53534913 -0.079693697 0.22132716
0.54869252 -0.073432617 0.23174457
0.54739988 -0.053649165 0.22878201
0.54684037 -0.0046493039 0.26031524
0.53466332 -0.072530784 0.20594396
0.54315811 -0.012629023 0.23439127
0.54407167 0.01684206 0.23197787
0.5414499 -0.016899835 0.23438488
0.54797286 0.001138203 0.2559953
0.55541337 -0.09499073 0.22385742
0.55602336 -0.057857554 0.23092435
0.555978 -0.059977464 0.22878027
0.53924918 -0.044587478 0.2303714
0.54830533 0.0013530903 0.25571036
0.564852 -0.12313017 0.21144508
0.5411458 -0.016130436 0.2334362
0.54068202 -0.092354551 0.22431779
0.54677832 -0.0007443502 0.25648096
0.55385607 -0.11652859 0.21760315
0.56141478 -0.10486089 0.2190486
0.53969622 -0.1003954 0.22056369
0.55454141 -0.056071784 0.23144762
0.54078007 -0.11963245 0.21236514
0.57033086 -0.11356348 0.21123515
0.55395472 -0.10075644 0.22666472
0.54249406 -0.075585485 0.2281875
0.55380362 -0.067773879 0.22908312
0.53745759 -0.025690796 0.23252606
0.55871505 -0.038585059 0.22822063
0.56315249 -0.1028307 0.21955423
0.56846029 -0.10023708 0.2164111
0.54010683 -0.11303172 0.2155209
0.54086137 -0.043693397 0.2318951
0.55726027 -0.019639635 0.23166808
0.5576452 -0.065814219 0.22825453
0.54534698 -0.0098194461 0.23493056
0.55076414 -0.1062709 0.22216068
0.53704584 -0.08854536 0.2211193
0.54211986 -0.11398451 0.21725017
0.56558782 -0.10646044 0.2163167
0.53623158 -0.054780688 0.22529371
0.54550993 -0.061374243 0.2321686
0.54314971 -0.11859465 0.2144008
0.55672681 -0.085215852 0.22552824
0.5388273 -0.098840035 0.21989216
0.53228331 -0.043926325 0.22035903
0.56215346 -0.032526035 0.22673212
0.54464889 -0.098140515 0.22488174
0.53912544 0.005881228 0.23641315
0.57067657 -0.12066566 0.20800565
0.56090605 -0.044113562 0.22641772
0.54223126 -0.086724788 0.22659497
0.55320978 -0.099705175 0.22315653
0.53078878 -0.026205549 0.22180535
0.54264522 -0.092186719 0.22549379
0.53733647 -0.029327741 0.22977787
0.56232852 -0.076171339 0.22971615
0.53857636 -0.014879582 0.23298195
0.54433513 -0.065756738 0.2323657
0.5353381 -0.10009252 0.21033129
0.54264593 -0.060349971 0.23138933
0.53853399 -0.066001855 0.22636901
0.5478127 -0.094421439 0.22661455
0.54628068 -0.028413286 0.2352462
0.55019218 0.017298283 0.22905053
0.5418117 0.0072475551 0.23750754
0.56231046 -0.070236713 0.22608387
0.55209005 -0.12620784 0.20996496
0.55195767 -0.064576916 0.22766992
0.53858662 0.0010020885 0.2352313
0.54506838 -0.045986414 0.23381142
0.54648048 -0.12185965 0.21377707
0.53840208 -0.032698121 0.22921574
0.5714848 -0.11898649 0.20868869
0.56695241 -0.10935239 0.21397963
0.54720646 0.014501394 0.23600575
0.5352729 -0.044026937 0.22594714
0.5519954 -0.0049665114 0.23162711
0.54296744 -0.052551653 0.23190176
0.54493439 0.01121719 0.24042995
0.53434265 -0.010822313 0.22829285
0.56860822 -0.10132165 0.21568781
0.54140818 -0.065307871 0.22977479
0.54879725 -0.025430163 0.2360892
0.54578227 -0.10323584 0.22308324
0.53538638 -0.010406374 0.23051253
0.55018294 -0.0071154023 0.23545736
0.54848731 -0.080058299 0.23080629
0.53678781 -0.07257013 0.22600058
0.54664296 0.00027866065 0.25713515
0.56283867 -0.11970366 0.2131366
0.54765886 -0.021997262 0.231785
0.54262596 -0.11916144 0.21370192
0.54069638 -0.049108032 0.23187186
0.5567776 0.010540187 0.24344236
0.53418374 -0.049325127 0.21874772
0.54912359 -0.10051541 0.22189429
0.5697456 -0.099579386 0.21911219
0.56296575 -0.041570935 0.2258556
0.54952729 -0.024062388 0.2361362
0.56277448 -0.056321271 0.22690237
0.54623324 0.0069272188 0.23964094
0.53661501 -0.080013454 0.2258298
0.54833645 0.013127954 0.23770495
0.53435725 0.024920542 0.24113785
0.55101013 0.0047864583 0.25227568
0.55085564 -0.10026892 0.22255968
0.53971034 -0.087480009 0.22468668
0.55723852 -0.10761264 0.21912998
0.55980843 -0.049540598 0.22730578
0.54400527 -0.089346357 0.22696494
0.54675806 -0.014000233 0.26527157
0.54823524 -0.0076920348 0.26045889
0.55710995 -0.073562138 0.23149972
0.54680991 0.0052307383 0.23869836
0.54791284 -0.0011475073 0.25753534
0.54431087 -0.03276274 0.23036711
0.56073391 -0.12584355 0.21152532
0.56008571 -0.049812235 0.22702348
0.56385803 -0.064503945 0.22770011
0.53983253 -0.08576946 0.2260142
0.5624612 -0.039201852 0.22626738
0.53891158 -0.027184982 0.23220295
0.55220729 -0.068228595 0.22782822
0.54710197 -0.10845613 0.22129244
0.55955231 -0.021073086 0.2310739
0.56671208 -0.10009061 0.21723643
0.56021762 -0.045955557 0.22682948
0.54376072 -0.096384957 0.22570093
0.53531951 0.0089175608 0.23390679
0.53457934 -0.051919434 0.21704568
0.54856026 -0.10248657 0.22093014
0.54285133 -0.016076548 0.23439002
0.53779882 0.00014949789 0.23418002
0.54980308 -0.11023784 0.21692732
0.54794151 -0.0070388834 0.26543975
0.56444401 -0.10965647 0.21609494
0.56704158 -0.12074294 0.21073356
0.56181371 -0.045839272 0.22622831
0.53993952 -0.055422999 0.22951384
0.53659934 -0.031878427 0.22750093
0.55699342 -0.11698439 0.21624164
0.55713981 -0.12192197 0.21293968
0.53427327 0.012521542 0.21841136
0.54116368 -0.0010786799 0.23643066
0.54747456 0.0087323347 0.24187931
0.54016268 0.015149764 0.2385973
0.5499177 -0.055105999 0.23238882
0.53281844 0.015372003 0.22785485
0.55568731 0.0086519998 0.24770872
0.53725308 -0.088717319 0.22110347
0.54517835 0.00075743097 0.25617224
0.55114871 -0.054843862 0.22896442
0.54819977 -0.12075382 0.21416102
0.53267044 0.014348007 0.241907
0.55469602 -0.096082263 0.225798
0.54789603 -0.056825824 0.23274313
0.54815984 -0.11145669 0.21687639
0.55122191 -0.11358184 0.21836546
0.54164195 -0.023188299 0.23526166
0.5553233 -0.09880989 0.2260621
0.53670651 -0.08269912 0.22389737
0.53574109 -0.039004311 0.22719699
0.54892957 -0.072907314 0.22947887
0.54185283 0.021646619 0.20936389
0.5462392 -0.092602134 0.22711352
0.54942012 -0.11598383 0.21833432
0.53953493 -0.029139807 0.23109479
0.53680104 -0.11509228 0.20275539
0.5489642 -0.070935138 0.23102608
0.56012672 -0.02163576 0.23048912
0.5441792 -0.0063602901 0.23282424
0.54550761 0.012160218 0.24604113
0.54366702 -0.029620256 0.23430829
0.53456736 -0.059584484 0.22491768
0.55101895 -0.098260604 0.2241471
0.53906703 0.00060341886 0.23519462
0.54117769 -0.10909417 0.21764657
0.54957789 -0.11190296 0.21600734
0.55497289 0.015764797 0.2318377
0.5396837 -0.03925363 0.2318328
0.53911108 -0.11295958 0.21504043
0.55127019 -0.09177319 0.22636138
0.54896307 -0.11686166 0.21744171
0.5499211 -0.0078510977 0.26590145
0.56311214 -0.097503707 0.22157323
0.54135931 -0.063765816 0.22953297
0.544083 -0.025987331 0.23210338
0.55094796 0.011801763 0.24001129
0.56392616 -0.089786306 0.22220044
0.54202992 -0.053147402 0.23095976
0.54639852 -0.080564663 0.23066658
0.53780317 -0.069157928 0.22635552
0.53751421 -0.094013155 0.22004291
0.53799671 -0.095260561 0.22073457
0.54534918 -0.081072867 0.2266214
0.55379713 -0.11209974 0.21659987
0.53243017 0.018140968 0.24322325
0.55061859 -0.068629555 0.22825278
0.56237894 -0.099895693 0.22166868
0.55077451 -0.052945592 0.23173523
0.54895073 -0.094997384 0.22544618
0.54278803 -0.096502401 0.22373962
0.54282337 -0.014007459 0.26696399
0.54178315 -0.047891039 0.23199886
0.56053978 -0.074647523 0.2307477
0.55509388 -0.072033308 0.22944099
0.53758961 -0.08795695 0.22184482
0.5461517 -0.0004556588 0.23821029
0.54622269 -0.034812842 0.23320033
0.56597054 -0.096858598 0.21951841
0.54577172 -0.080194987 0.2269785
0.53796351 -0.015763201 0.23335491
0.56587791 -0.11199095 0.21406846
0.54569429 -0.03633083 0.22885452
0.54228419 -0.032114957 0.23307994
0.5605188 -0.11627485 0.21495856
0.55176538 -0.072455622 0.2279271
0.53462595 -0.074437886 0.21534374
0.5344581 -0.056956742 0.21732436
0.5366714 -0.11520331 0.20666407
0.54392129 -0.094886243 0.22553939
0.53685874 -0.1183866 0.20847595
0.54178178 0.0098581593 0.24745138
0.54253256 -0.029538065 0.23376092
0.53521127 0.0029650491 0.2132168
0.55248713 -0.025214989 0.23152442
0.53711069 -0.11069918 0.20886923
0.56329399 -0.078180373 0.22456191
0.55726409 -0.019729989 0.22761793
0.53914779 -0.095188923 0.22140433
0.56810403 -0.095165253 0.2184076
0.54958981 -0.11557762 0.21500731
0.56421095 -0.076767072 0.2237927
0.53390807 -0.037561491 0.22321902
0.5361855 -0.098791525 0.21445203
0.56260133 -0.11250066 0.21513742
0.56049907 -0.083830513 0.22478423
0.55258167 -0.11830599 0.21696216
0.5663864 -0.11702329 0.21327637
0.54535615 0.019168409 0.22351618
0.56829476 -0.10695013 0.213634
0.53549784 -0.067673184 0.2221553
0.55801535 -0.10619634 0.21966606
0.56362945 -0.066799514 0.22513433
0.54271656 -0.076436743 0.22903205
0.54149055 -0.098065451 0.2232444
0.55171108 -0.0048401863 0.2609005
0.53700268 -0.046241265 0.22930057
0.55782437 -0.10449013 0.22049168
0.55667484 -0.012897782 0.23104551
0.54258853 -0.0037183971 0.25897431
0.54110414 -0.12115069 0.21006529
0.54001647 -0.082953431 0.22683707
0.56367493 -0.034560438 0.22609608
0.55224526 0.014697067 0.2513023
0.54868782 -0.052236862 0.23249312
0.55846781 -0.023610894 0.23222058
0.54490715 -0.10890698 0.21978348
0.55020148 -0.047566522 0.230065
0.54759073 -0.0072633 0.26045126
0.54329449 -0.083206706 0.22976041
0.53998727 -0.068831861 0.22776668
0.54843074 -0.11667128 0.21729687
0.53651291 -0.096275635 0.21783704
0.53507966 -0.061516739 0.22241327
0.56016666 -0.074019156 0.22592579
0.54266483 -0.037718873 0.22803968
0.54227877 -0.063181564 0.2304568
0.55666971 0.0087252287 0.24723884
0.55646563 0.011186549 0.24314794
0.53496218 -0.063310467 0.22373363
0.56253839 -0.058066767 0.22593798
0.54881793 -0.00063328468 0.26792875
0.55782962 -0.10756958 0.21890734
0.53895414 -0.10003414 0.22043251
0.5484457 -0.069391407 0.22745894
0.54601425 -0.056358937 0.23207906
0.55163276 -0.0021086356 0.25785053
0.53623438 -0.0657138 0.21587554
0.54998273 0.0029989444 0.25390056
0.53641409 -0.10309593 0.21004543
0.55610567 0.0069415784 0.24993637
0.56049824 -0.087679207 0.22793375
0.53468341 -0.072678216 0.21802615
0.55535144 -0.054411527 0.23040001
0.53837055 -0.10868774 0.21238185
