# .PCD v0.7 - Point Cloud Data file format
VERSION 0.7
FIELDS x y z
SIZE 4 4 4
TYPE F F F
COUNT 1 1 1
WIDTH 1359
HEIGHT 1
VIEWPOINT 0 0 0 1 0 0 0
POINTS 1359
DATA ascii
0.59470069 -0.0048682028 0.26537821
0.55594313 0.0064713284 0.21335383
0.5276522 -0.0016030748 0.22447048
0.56074488 0.005148917 0.21853852
0.61107755 -0.0025069572 0.24828875
0.54197365 -0.011573404 0.22874999
0.60232294 0.0039930712 0.21675041
0.56201142 0.00038682501 0.23225701
0.53996372 -0.014445855 0.21970955
0.60579187 -0.0084402421 0.21430722
0.59916651 -0.0024367976 0.26182488
0.52013493 0.0049873088 0.20804536
0.59184641 0.0011657904 0.22821321
0.54876602 -0.00036963081 0.22831284
0.56164807 0.00012625425 0.22529878
0.5859164 -0.0020307398 0.26765379
0.5780254 -0.0018988814 0.22998969
0.57290864 -0.0033837652 0.23395944
0.53796941 -0.0090759909 0.2245737
0.56565958 0.0050409711 0.23358589
0.53234607 -0.002577682 0.22564963
0.50799215 -0.0013415042 0.22369435
0.5798018 0.0075474088 0.21769035
0.5074659 -0.00086047204 0.22176555
0.58846867 0.0057808934 0.22023694
0.59033883 0.0034233755 0.23614071
0.48976797 -0.0033470686 0.2125819
0.49355054 -0.0019713573 0.21699432
0.58929622 -0.010150908 0.26750436
0.47581646 0.0069859573 0.20854115
0.57303846 -0.00040747714 0.23095572
0.57612038 -0.0045289462 0.23348168
0.60407543 0.0041794414 0.25791177
0.58921695 -0.0035787027 0.26780921
0.49707079 -0.01220581 0.21117938
0.5942269 -0.010765689 0.26256377
0.58509547 0.0033358312 0.22585118
0.57749599 -0.0036094501 0.23371135
0.59110814 -0.0028142645 0.26683325
0.60511702 0.0038938075 0.25446448
0.60819948 -0.0069031082 0.25280917
0.54671568 -0.0023305863 0.22823738
0.55994046 -0.008534072 0.22456443
0.48488557 -0.0054353718 0.21231098
0.501243 -0.015866192 0.20936017
0.54842871 0.0015988469 0.22362627
0.58890486 -0.010800507 0.22247142
0.49767163 0.0064906422 0.21717791
0.59373677 -0.0035109424 0.23555082
0.5636884 -0.0025689937 0.23097424
0.60728329 -0.0022326282 0.2464584
0.4968909 -0.00026133831 0.21989724
0.49496898 -0.011738536 0.21175154
0.48552316 -0.011193483 0.21115316
0.52037174 -0.017875865 0.21218286
0.48292404 -0.012234199 0.2089927
0.59552783 0.0022167687 0.26415282
0.61126119 -0.0078351349 0.24099553
0.59671837 0.0014249646 0.26416636
0.59215409 -0.011884906 0.21795292
0.50254714 -0.013100932 0.21209946
0.49319041 -0.012319705 0.21036978
0.58605146 0.0071401987 0.2178262
0.52743536 -0.010113781 0.22357766
0.56719023 -0.014479364 0.21568723
0.58463234 -0.0055856491 0.229938
0.58934879 0.011419657 0.26444826
0.55785555 -0.0073680268 0.2306152
0.48237634 -0.012098175 0.21263191
0.52589756 -0.016480137 0.21070568
0.58909953 0.0034854629 0.26469639
0.5878166 -0.00037458187 0.23052761
0.57569623 -0.0035470219 0.23397905
0.60232484 0.006965314 0.25681794
0.57926953 0.001085844 0.23003994
0.47765681 -0.013042456 0.204221
0.47819927 -0.0044498462 0.2108524
0.50532091 -0.012268055 0.21555346
0.53993762 -0.015397349 0.22833447
0.51242381 -0.0084673436 0.22001964
0.60870856 0.0052460753 0.25138745
0.5070073 -0.0066119283 0.22263333
0.52803576 -0.0093012117 0.2258523
0.56150371 -0.010377012 0.22976878
0.53611517 0.0018381134 0.22876476
0.55558515 -0.0086259898 0.22289816
0.56667483 -0.0022833501 0.22706974
0.47934252 -0.012107376 0.20581414
0.61135167 0.0018925086 0.25503045
0.59683007 -0.0053319284 0.26477167
0.55029583 0.0055096904 0.21386603
0.54794008 -0.0072869165 0.22717568
0.47623295 -0.010170753 0.20693062
0.60558009 0.0052788062 0.24973553
0.51878095 -0.0052542794 0.22303323
0.57755208 0.0060273516 0.22348383
0.4783113 -0.011023098 0.20741513
0.56241459 0.0027885931 0.22822152
0.58791435 -0.014836632 0.27107003
0.60779124 0.0037647572 0.24980287
0.59095466 0.004018134 0.26110056
0.58701408 -0.00480713 0.2294091
0.59555709 -0.0068698116 0.26506251
0.55516219 0.00080911157 0.22882582
0.54215223 -0.0047452548 0.22865711
0.57536322 -0.0045418106 0.22950059
0.503474 -0.0088046361 0.21847314
0.58841586 -0.010215218 0.26783603
0.53599137 -0.01577059 0.21559764
0.59544325 -0.0053070351 0.26413321
0.47881749 -0.0001017489 0.21168549
0.53885502 -0.00047880856 0.2240146
0.57037431 -0.0047345567 0.22650667
0.52820754 0.002733008 0.21499147
0.53068328 -0.0075793238 0.22531414
0.57945818 -0.012969389 0.21641763
0.51791227 0.00079403876 0.22459581
0.57598287 -0.015320118 0.21520455
0.55474555 0.0059583434 0.22976899
0.50877368 -0.0013980108 0.22407137
0.59344584 -0.016041277 0.26949444
0.55191541 0.0027172775 0.22886728
0.52491987 -0.0071117482 0.22674325
0.60695213 0.0090347361 0.25557971
0.49757528 -0.012199049 0.22018963
0.51049441 -0.010815973 0.2180434
0.50109726 3.5706857e-05 0.21312374
0.59551644 -0.0069390526 0.2631079
0.5808726 0.0077643925 0.23562586
0.54120451 0.0043590297 0.2121596
0.51256156 -0.0024043133 0.22241175
0.61080575 -0.0077917739 0.24494728
0.49557441 0.0017740572 0.20797294
0.58579481 0.0012378474 0.22948819
0.499926 0.009890086 0.2168342
0.56095064 -0.010103668 0.22259404
0.57013655 0.0057253786 0.22304399
0.56060302 4.810101e-05 0.22579893
0.53944147 -0.0033198253 0.22961003
0.60962272 0.0027100451 0.19587147
0.60122675 -0.013930984 0.26475841
0.52261162 0.0065952721 0.22655675
0.50251156 -0.002270452 0.22142592
0.51269299 0.0062793139 0.21038282
0.53779721 -0.0067967437 0.22992632
0.56880391 -0.013811004 0.21665925
0.49897787 0.0040177009 0.20630066
0.55392087 0.0041450919 0.2208574
0.5393424 -0.010729529 0.2234804
0.59541196 0.0052201599 0.26060542
0.50248122 -0.014525942 0.21101257
0.5752055 0.0018667134 0.2297937
0.58548772 0.0020822815 0.2672759
0.52475744 -0.0016105497 0.22841781
0.55448949 -0.005597664 0.22787102
0.50134617 -0.00071177341 0.21478577
0.53985333 -0.010481789 0.22893684
0.51784045 -0.0095973639 0.22078283
0.55843991 0.0017045623 0.22435619
0.56582564 -0.0060862931 0.22511002
0.50293994 -0.0098306676 0.21742988
0.47836128 0.0032086149 0.20982385
0.53988093 -0.0088159796 0.23036951
0.50334221 -0.0047812769 0.21986887
0.57046169 -0.0079471488 0.22928099
0.57350665 -0.0098736556 0.2233001
0.50548512 -0.00044535531 0.22301248
0.52419883 -0.0057635438 0.22417414
0.48507512 0.0011230363 0.20271826
0.55763549 -0.0024135211 0.22742851
0.55975515 -0.015071605 0.23108034
0.58490181 -0.0057300897 0.23321199
0.59192115 -0.010276011 0.22152045
0.54962033 -0.0044598058 0.22967501
0.48227078 -0.016390463 0.2054922
0.48373321 0.00033381229 0.21328713
0.6042676 0.0034554382 0.2213674
0.60381252 -0.0073906053 0.2631391
0.52201188 -0.00400559 0.22653282
0.53680944 -0.010498255 0.22897993
0.56018955 0.0019368544 0.22345166
0.58713639 -0.0063095354 0.22844206
0.57011139 -0.012858013 0.21793371
0.48052919 -0.0036659038 0.21132578
0.52897543 0.004664389 0.22854133
0.48505229 -0.0045930045 0.21441828
0.54471493 0.0038307048 0.23094516
0.60336715 -0.005785556 0.25677028
0.48349455 -0.0071853888 0.21302405
0.56088555 0.0059119524 0.22703542
0.56830525 0.0048792679 0.22311626
0.57494509 0.0020789048 0.23637483
0.54463971 -0.011472798 0.22881334
0.60647452 -0.0074140453 0.23206796
0.59961641 -0.0040556164 0.26273093
0.48956391 0.00013223522 0.20909148
0.589773 0.0021387332 0.26667368
0.48636308 -0.019570764 0.1968524
0.57880688 0.0065842122 0.22002898
0.59612268 0.0096367784 0.25735807
0.55630362 0.0064809821 0.22963607
0.54742283 -0.010885275 0.2201831
0.54994047 0.0051608537 0.23066625
0.49804375 0.0023236449 0.21971574
0.52806884 -0.010340228 0.22374997
0.56521565 -0.011343744 0.22125721
0.5081498 -0.010646453 0.21691236
0.51440477 0.0075585796 0.22557744
0.59495318 0.0034069668 0.26361117
0.59355974 0.0064323246 0.21634732
0.52888507 0.0033736054 0.20663348
0.52097476 -0.011633759 0.21899475
0.4989996 -0.0011261252 0.22038883
0.53890979 -0.0088451896 0.22481091
0.6002605 -0.0024279172 0.26012498
0.50962692 -0.011073657 0.22701181
0.53688926 -0.0046444037 0.22573288
0.59688181 -0.0067102406 0.22907068
0.61060458 -0.0081673628 0.24106967
0.58431327 -0.0045722872 0.22944538
0.53448504 -0.012208051 0.22213656
0.55713212 -0.0081917103 0.22601923
0.55321532 -0.015276239 0.21113245
0.5888238 -0.0073545869 0.26954636
0.60643184 -0.0012069957 0.2467591
0.55490088 -0.006151706 0.22469415
0.55755889 -0.009891443 0.22364023
0.49557287 0.0046543311 0.21740514
0.61188132 -0.00296041 0.25674319
0.60370684 0.0051790839 0.21537119
0.56332761 -0.0070521231 0.22611937
0.59308839 0.0058918539 0.2619935
0.60185635 0.0014665403 0.2262668
0.59874928 -0.0020654497 0.26305881
0.58500975 0.0064663617 0.21871942
0.59950554 -0.0021873948 0.23196608
0.494394 0.0035591233 0.20347576
0.58867985 -0.011627047 0.22081803
0.60522795 0.012014849 0.258122
0.59874725 -0.014206315 0.26600462
0.58783698 0.0011575364 0.22993898
0.52725106 -0.010328668 0.22384006
0.52298725 0.0026591253 0.22791342
0.55896711 -0.0048501431 0.22847082
0.50733823 -0.0024413432 0.22388573
0.59557104 -0.0063329763 0.26470101
0.61274666 -0.0011944959 0.25188342
0.56809258 -0.008895102 0.22595884
0.53342092 0.0042384174 0.22925527
0.5944137 -0.0072167446 0.26464772
0.60119647 0.0056626843 0.25037697
0.50240475 0.00069191924 0.2146758
0.60770005 0.0057327761 0.24513713
0.58085316 -0.00046808968 0.22967041
0.48675963 0.001361568 0.21566698
0.55506623 -0.01089027 0.23159692
0.57645005 -0.010195045 0.2346999
0.55736804 -0.0045009288 0.2259053
0.57041806 -0.0019427288 0.2281895
0.59830159 0.0097255968 0.23964399
0.57752341 -0.010634534 0.23580424
0.52642924 0.0095390035 0.22671422
0.57627457 -0.0099842809 0.2258002
0.51338631 -0.0089333979 0.22233531
0.58823436 0.0025528464 0.26578578
0.56065851 -0.013467769 0.2153216
0.57768464 0.0011632374 0.23174353
0.58805972 0.0004796182 0.26579168
0.53752023 -0.011501279 0.2237777
0.59130937 -0.01589283 0.27158666
0.55762422 0.0070406822 0.21480316
0.53813219 -0.011697946 0.21325259
0.58677286 0.0044047502 0.22314976
0.58377862 -0.0028469942 0.23341233
0.49955925 -0.00078783976 0.22016241
0.59968317 -0.013866602 0.26537806
0.60720265 -0.0060182358 0.23956162
0.60833436 -0.0074271634 0.23749901
0.6005913 0.0026821061 0.24108651
0.48295027 -0.014007446 0.20093141
0.56416708 -0.0095399385 0.22245964
0.59766936 -0.005491192 0.26183879
0.57323408 0.0059570218 0.22156157
0.5856232 -0.0041117985 0.2321139
0.55374122 -0.013949157 0.21171962
0.61036426 -0.0080608232 0.24248031
0.57777804 0.0040888912 0.23666914
0.51102746 0.0018286851 0.22495317
0.61486793 -0.0046505486 0.24603094
0.51680768 0.0064720232 0.22606298
0.52842534 -0.0072495514 0.22397724
0.57527709 -0.005669367 0.23347989
0.50753158 -0.0053584906 0.22148588
0.49573985 0.0013100454 0.21075694
0.52224672 -0.0001658097 0.22591855
0.50914937 -0.014868307 0.21376489
0.56650466 -0.0035427492 0.22637396
0.49676734 0.00071162177 0.21198624
0.60570019 -0.0053805429 0.26099801
0.59967613 -0.014136848 0.26556003
0.55011171 0.0073658526 0.22967841
0.5294981 -0.013787056 0.22203058
0.53364784 0.0032234921 0.22998127
0.58364064 0.0031021615 0.23067184
0.57732147 0.0026563532 0.22963671
0.58365822 -0.0036019147 0.23361003
0.49702027 -0.0087754102 0.21636452
0.59797084 0.0030160495 0.2625753
0.55678976 0.0069103115 0.2139737
0.4983232 -0.0080187405 0.21900025
0.49639583 -0.015184397 0.20861976
0.55892575 -0.0044961507 0.22649653
0.56600064 0.00014948635 0.23286575
0.60803843 0.0055342959 0.24384958
0.4816139 -0.00065881613 0.21277261
0.49868977 -0.005105882 0.21756171
0.55691963 0.0012530243 0.228356
0.58932704 -0.010371878 0.27005482
0.55527949 0.0008595261 0.22627184
0.55547935 0.0047513894 0.22984999
0.54596573 0.0042482307 0.21655932
0.56918752 -0.013469344 0.21670586
0.50601888 -0.017335914 0.20984641
0.57687134 -0.0066925311 0.22879919
0.60849541 -0.0099805193 0.21098529
0.5801881 0.0029949744 0.23081638
0.56965762 -0.0028670726 0.23021367
0.57792407 0.0047949012 0.22541422
0.51079512 -0.010182899 0.21841581
0.53626943 -0.0086305635 0.22480941
0.58854741 -0.0062183212 0.26891246
0.56450856 0.0031722181 0.22205427
0.52805394 0.0094215358 0.22749798
0.54874885 -0.010628045 0.22243673
0.50419217 0.0048419745 0.22080806
0.56834292 0.0027932171 0.22575539
0.59273136 -0.01174605 0.21654987
0.52290606 -0.0063811396 0.22584964
0.60350001 -0.0083296811 0.26262125
0.49556273 -0.016966268 0.20949821
0.52579486 -0.013461118 0.22802499
0.48468325 -0.017940594 0.20104238
0.58317351 -0.0010679178 0.234401
0.5743975 0.0065631452 0.23294096
0.54647827 -0.0046633156 0.22666007
0.48135567 -0.0029552428 0.20828877
0.54851377 -0.009705741 0.22434473
0.48634055 -0.011204062 0.21022995
0.60584325 0.0045093992 0.24419631
0.58807182 0.0099656656 0.26534462
0.57934189 0.0048331404 0.22605443
0.51936251 -0.0035678006 0.22381593
0.48970443 -0.0084525561 0.21406259
0.60940355 0.0030678161 0.25015238
0.52203584 -0.0091359913 0.22549973
0.51723748 0.0056217867 0.22701924
0.59585011 -0.0020816466 0.23638438
0.55689621 0.0062654717 0.21562889
0.49423257 -0.007084162 0.21885167
0.6037457 0.0031825213 0.25871342
0.5068019 -0.013555411 0.21269026
0.51973623 -0.0011469431 0.22388919
0.55767792 -0.0095438464 0.23085852
0.50615013 -0.0091225393 0.21831891
0.50285482 -0.0067017595 0.22065298
0.52989465 -0.016970608 0.22731626
0.58014667 0.0062146094 0.23155126
0.59169978 -0.0047618062 0.26604238
0.51067793 -0.0086757755 0.22624673
0.60330701 -0.0068057552 0.25741839
0.55186146 -0.0069061979 0.22427019
0.52365464 -0.0018921018 0.22761919
0.49597344 -0.005738189 0.21741177
0.57016587 -0.0013414527 0.22866212
0.59336519 0.00485268 0.26248813
0.57586288 0.0011285892 0.23000047
0.57051855 0.00061519857 0.22881198
0.60006464 0.0020275437 0.26233158
0.5621314 -0.014068031 0.21557987
0.49527732 -0.010891583 0.21456468
0.5128243 -0.011418383 0.22714208
0.54963201 -0.014509849 0.2118644
0.52082884 -0.016283851 0.21544947
0.59810239 -0.0034568792 0.26298401
0.61054116 -0.0090532936 0.26007935
0.49397057 -0.011739835 0.21888448
0.52735168 0.0025831568 0.21927944
0.53693306 -0.0043199821 0.22591211
0.57153761 -0.0047661816 0.22724187
0.56705165 -0.0094259121 0.2225585
0.50927025 -0.00088618509 0.21914439
0.59058797 -0.0042972299 0.26679379
0.58678705 0.0021373623 0.22719289
0.54238105 -0.010032168 0.22217159
0.59471136 0.010494702 0.25723508
0.49807796 -0.004757897 0.21992177
0.60331589 -0.00338627 0.25700942
0.57724309 -0.0088011473 0.22735767
0.50697482 -0.0043236571 0.22110653
0.49329555 -0.0082232263 0.21684524
0.60289204 0.0029928179 0.22481166
0.51309848 -0.013773954 0.21319567
0.6004588 0.0063482886 0.24507426
0.5972771 -0.00021801259 0.26374087
0.60423797 0.0041110157 0.25496715
0.616741 -0.001591234 0.19515765
0.56606179 -0.0019038966 0.22857095
0.52546436 0.0012065533 0.22816864
0.5110184 0.0043145828 0.21367627
0.59007406 0.002073165 0.26658791
0.60267228 -0.0071269087 0.25749007
0.59993136 0.006134179 0.24598707
0.59053606 -0.0055963723 0.26726854
0.5415321 0.0042691976 0.21462622
0.60784197 0.0040796893 0.22451572
0.55331558 -0.002145892 0.22978926
0.52355033 0.0018907123 0.22764808
0.55237532 0.0017610773 0.22564703
0.51251602 -0.0041916026 0.22376226
0.57002157 -0.012069474 0.22058974
0.57311314 -0.0041536638 0.22819594
0.50966859 -0.0052763503 0.22188026
0.51464689 0.0018357184 0.21758258
0.58446175 0.001528157 0.22986791
0.50715637 -0.0084829675 0.21932998
0.51323354 -0.010398048 0.21850203
0.60962194 -0.0089772139 0.21112214
0.49907523 -0.0048565418 0.21723118
0.57693082 -0.0086044827 0.23226176
0.59863681 -0.0048728385 0.26180807
0.57711124 -0.010324036 0.23108952
0.57426226 -0.0041920077 0.22893302
0.4810631 -0.0062423395 0.21106395
0.53941113 -0.0061621834 0.23008747
0.56573915 -0.0092100473 0.22324295
0.61266804 -0.0012722479 0.25005201
0.51219165 -0.016024798 0.21302311
0.51010954 -0.012841525 0.21584
0.60267311 0.0082180332 0.258129
0.60319668 0.0054395362 0.25745431
0.5681721 -0.010016182 0.23176399
0.52107024 -0.017536825 0.21333972
0.5933429 -0.006479125 0.26554826
0.50466979 0.0062567294 0.20747104
0.53307819 -0.0021895412 0.22838831
0.5313341 -0.001203974 0.22643596
0.60889792 0.0045224316 0.25449938
0.54114419 0.0064031482 0.22957702
0.52971935 -0.00958273 0.22449936
0.56676137 0.00084040262 0.22893681
0.53513408 -0.0062626116 0.22944142
0.51784766 0.002425832 0.21709228
0.49281034 0.0020795423 0.21808514
0.6107192 0.0061626844 0.23718782
0.59345293 -0.0078308191 0.26467824
0.5158028 -0.010484886 0.22113171
0.54466301 0.005961685 0.23113647
0.51608062 -0.0036623639 0.22315615
0.52921355 0.003648673 0.22927269
0.60178769 -0.0024651294 0.23208
0.52968806 -0.00044066642 0.22410101
0.55744922 -0.0069008023 0.22714171
0.55183953 0.0064553716 0.21002972
0.59082252 -0.00059080799 0.2310897
0.51696014 -0.014156746 0.21588631
0.53219831 -0.0052838437 0.22698689
0.59033704 -0.0079845553 0.26714158
0.48517233 -0.020013968 0.19583939
0.59131843 0.00038810002 0.23577903
0.52926379 -0.0036236311 0.22583356
0.49880362 0.0096035432 0.21602143
0.53306258 -0.00036275838 0.229728
0.59258223 -0.010227721 0.22127141
0.58096749 0.0064808088 0.2217181
0.54962677 -0.0058035175 0.2258835
0.52008003 0.0032360915 0.21559784
0.57383519 -0.0060337898 0.23306607
0.4825452 -0.013535686 0.2051226
0.57851684 0.00034012608 0.23565194
0.59496415 0.0025209615 0.26163825
0.56086975 -0.003067428 0.22774772
0.60227907 -0.0080637913 0.26296905
0.60021615 0.0078465482 0.24334316
0.60875112 -0.0083027519 0.24176791
0.49197236 0.0039263996 0.21629232
0.59282225 -0.0055995705 0.23487294
0.57593119 -0.0018517333 0.23535594
0.54748315 0.0039423718 0.21993235
0.54737997 0.0012357056 0.22863042
0.56567228 -0.0036369942 0.22988585
0.60741919 -0.011072745 0.26275629
0.58916587 0.00086813251 0.22956045
0.49887788 -0.016751621 0.20947702
0.5942269 0.0048637791 0.21964751
0.59173524 -0.0021465311 0.26612198
0.61479998 0.0089788763 0.25099534
0.56828791 -0.0090544494 0.23235126
0.54283267 -0.0037443743 0.22829205
0.59311748 -0.016785081 0.27012792
0.54134035 -0.0061130528 0.22545195
0.51668805 -0.005326564 0.22262627
0.57686085 -0.010116321 0.23110865
0.47725859 0.0038264287 0.20968899
0.57075822 0.0064659789 0.22101298
0.55403137 -0.012923719 0.21720022
0.54577166 -0.0091665499 0.22462691
0.52296263 -0.004794342 0.22646013
0.60080594 0.0063339202 0.24930969
0.49698961 -0.0063442998 0.21661437
0.5226596 -0.0018413889 0.22294897
0.51246452 -0.013719432 0.21555752
0.60177517 -0.0093907537 0.25648847
0.57597959 0.0033965819 0.23654805
0.52990597 0.0017182606 0.22130394
0.49286512 0.0010125702 0.2096397
0.58544451 -0.0091957767 0.23400046
0.52658492 -0.0011278676 0.22839968
0.52942675 0.002963742 0.20539866
0.5288288 -0.01409078 0.22088291
0.56888944 -0.013177477 0.21700926
0.59050876 -0.0024156333 0.26682642
0.53652048 -0.0035338146 0.22924054
0.58641648 -0.012916136 0.21974142
0.55372453 -0.0021754582 0.22998655
0.51359236 -0.013024968 0.21675012
0.58095205 0.0058855428 0.22211894
0.52124536 -0.0057219402 0.22485177
0.48885792 -0.0017928752 0.2171701
0.58204824 0.0048387102 0.22488953
0.53573775 -0.0053028772 0.22751573
0.60436374 0.0035822892 0.25818351
0.591299 0.00260519 0.26571003
0.53371972 0.0032359932 0.20719793
0.5970068 -0.001030038 0.23247939
0.59133619 0.0063248076 0.26299542
0.59243417 -0.0097283535 0.26519555
0.58558953 0.0035286166 0.23502727
0.61433005 0.0048482148 0.25116518
0.57727236 -0.0099113956 0.2254243
0.60476679 -0.0059843194 0.26179835
0.53378844 -0.0096891886 0.22396491
0.58491814 -0.0082851816 0.22817259
0.49743143 0.0066899364 0.21719629
0.55131418 0.0055065877 0.23030396
0.5739882 -0.0036514276 0.23434028
0.55238259 0.0019933323 0.2294738
0.53539592 0.0038175054 0.20736748
0.57795864 -0.0070376568 0.22937539
0.55386078 -5.8157417e-05 0.22748828
0.52139616 0.0027741643 0.22714588
0.58541971 -0.015181448 0.2150474
0.50867277 -0.0095813014 0.22515906
0.59705383 0.0026832253 0.26318914
0.51331842 0.0067637018 0.2110675
0.53115255 0.0055093477 0.22897784
0.57084078 0.0011866309 0.22991838
0.53001392 0.0037833271 0.2058778
0.56379449 -0.0037407195 0.22739495
0.58231384 -0.01098557 0.23525517
0.54109889 0.0034286112 0.22046414
0.58189309 -0.0050748601 0.23406899
0.53809625 -0.0021976021 0.22547843
0.53507406 -0.0023338445 0.22935112
0.54990453 0.0040704613 0.22135624
0.57848191 0.0072572897 0.21972267
0.56870019 -0.0010126099 0.22823544
0.60976666 -0.00044330515 0.2572574
0.58778781 0.014371949 0.26566032
0.60633916 0.0064383359 0.251623
0.51133645 -0.011473712 0.21740119
0.60016078 -0.0066784057 0.26006585
0.49125838 -0.0016784206 0.21211119
0.5989185 0.0092314668 0.24096319
0.57654417 0.00043614183 0.23601931
0.52555281 -0.00087195891 0.22803555
0.59362149 -0.00022084461 0.26302201
0.50172007 -0.0034822044 0.22009932
0.51748163 -0.0010542445 0.22210167
0.55745244 -0.0063822824 0.22472332
0.5734694 -0.0051709423 0.22867049
0.52292699 -0.0098318588 0.22272369
0.56092238 -0.0074712383 0.22587481
0.49102384 -0.012872824 0.20880087
0.54125643 0.0020989792 0.22800249
0.59583151 0.0060922313 0.26096007
0.60024899 0.0030492274 0.25724494
0.58809572 0.014394439 0.26554433
0.55294383 0.0056441906 0.22992526
0.55445927 -0.0038684313 0.22975484
0.53818357 -0.0056285346 0.2289869
0.50493693 -0.0045220735 0.22086383
0.48432493 -0.013841161 0.20585068
0.49867934 0.00096547382 0.21099776
0.51430565 -0.008946863 0.22146456
0.59015197 0.004263809 0.22179325
0.53928304 0.0022540335 0.22202112
0.51325494 -0.013604622 0.21340443
0.60397482 -0.0077637974 0.21672931
0.60943824 0.0067422553 0.25437999
0.53072131 -0.0052284687 0.22548616
0.5253129 0.0028735655 0.2072235
0.48998722 0.001637876 0.20281737
0.56198668 0.0039987667 0.22131507
0.57155794 0.0040276507 0.23134752
0.59225416 0.0015535635 0.26343477
0.53925163 0.0012340266 0.23016207
0.60315293 -0.0098737115 0.26379269
0.57850194 -0.0038285372 0.2334248
0.55532944 0.0053553139 0.21563005
0.51747769 0.0054224939 0.22700086
0.60749012 0.01076825 0.25640944
0.50005537 -0.013993104 0.21010612
0.5106619 0.0067337998 0.22296356
0.5023573 -0.0024373829 0.22122012
0.55228001 -0.0019091207 0.22811849
0.58624268 0.0019248888 0.23010282
0.59123588 -0.0029488846 0.26609805
0.5491941 -0.0038103322 0.22905962
0.53151536 -0.0065520448 0.22558965
0.60391325 -0.009983045 0.25273788
0.60390478 -0.0067356108 0.23107485
0.61161739 0.007182857 0.25373054
0.55841613 0.00078975235 0.22497222
0.56376004 0.0051458701 0.21979451
0.55777013 -0.010044045 0.22111362
0.58278555 -0.011051401 0.22614074
0.51830131 -0.011657456 0.21889828
0.50143957 -0.0043299245 0.21933186
0.52495056 0.004682384 0.20363338
0.60990477 0.0033884128 0.25338677
0.56204444 -0.007818846 0.22440256
0.59252089 0.00213085 0.22601087
0.53594154 -0.0026703731 0.22671603
0.48747349 -0.0086435741 0.21272638
0.53509414 -0.014074367 0.22826269
0.60239035 -0.010820161 0.25411379
0.55966651 0.0041497722 0.21966289
0.59965181 -0.0025300998 0.26297927
0.55455798 -0.006176753 0.22482333
0.49248821 -0.0098869437 0.21449552
0.60659194 -0.0063817967 0.26127848
0.55430269 -0.0030400716 0.22684228
0.61193717 0.00096069049 0.25539631
0.57709277 0.0056835781 0.23251408
0.58661813 0.0026753072 0.23494864
0.53719318 0.0069842632 0.22924246
0.56120527 0.0050669629 0.21966912
0.52341735 -0.00072467927 0.2218843
0.50583714 -0.0074171182 0.21970069
0.52732581 -0.00026127449 0.22372192
0.57534838 -0.0010426188 0.23039468
0.60657322 -0.0081891501 0.26120961
0.53753352 -0.0043747006 0.22687031
0.60446262 -0.0059180725 0.26188499
0.48738515 -0.0091539202 0.21148108
0.55927473 0.0017185201 0.23177351
0.57932788 -0.0076653897 0.22966057
0.61279386 -0.0031591495 0.25648326
0.59339952 -0.0072097555 0.26621333
0.57198316 -0.0051600668 0.22805867
0.54473943 -0.0030960643 0.22710307
0.55020678 -0.00010813287 0.23098083
0.537579 -0.0083650909 0.22978476
0.60528958 -0.010339018 0.26318413
0.58957672 0.0016356154 0.26461262
0.53558922 0.00051103142 0.22817759
0.5085336 -0.014398065 0.2129962
0.56093091 0.00035489508 0.22860797
0.57509923 -0.0017915815 0.2349546
0.55449468 0.0055344128 0.21459576
0.59339225 -0.0029037436 0.23581433
0.5541777 -0.015850272 0.21037726
0.5414865 0.0085177738 0.22996755
0.57014644 -0.00015026321 0.2348657
0.48243874 -0.0096952002 0.21101376
0.60903323 -0.0024957694 0.25389919
0.60579103 -0.00091800059 0.25927755
0.55982691 0.0014024966 0.22396111
0.55009651 -0.010747585 0.22142835
0.55559117 -0.0090893917 0.23145291
0.59271473 -0.0067969561 0.26561919
0.52559251 -0.0087645566 0.22493935
0.51636708 0.0051389472 0.22619659
0.56342399 0.0015739454 0.22357805
0.55745393 -0.0038654879 0.22625636
0.57372624 0.0064957598 0.23627445
0.49976256 -0.012688431 0.21406935
0.54758394 0.0017591831 0.23095359
0.59555829 0.0029429963 0.22416981
0.50879622 -0.011936847 0.2169445
0.61330181 0.0050618877 0.24317792
0.52282375 -0.012887395 0.22637215
0.50339025 0.0044504162 0.22144285
0.50956112 0.0029203938 0.22361986
0.53747529 0.0013916956 0.22336784
0.57051098 0.0035448475 0.23508103
0.47443956 0.0034921593 0.20793201
0.59834492 -0.00063381292 0.23215716
0.52324104 0.0031811344 0.21555178
0.49648234 -0.0046805074 0.21784192
0.47923085 -0.010914062 0.20798825
0.50877959 -0.0071756742 0.2211643
0.59183657 0.0056103314 0.21763103
0.53198081 -0.0028139714 0.22596285
0.53763276 -0.0016991248 0.22721447
0.60114026 -0.0072577377 0.22943223
0.51438189 -0.003301529 0.22237222
0.58292717 -0.0018213633 0.23371302
0.60692459 0.00029990374 0.24813506
0.59069067 -0.0061470387 0.26794568
0.57522857 0.0027541353 0.22919612
0.58003235 0.00094759773 0.23087901
0.56760436 0.0044259238 0.2237172
0.5722962 0.00084944052 0.23034434
0.58667767 0.003308553 0.26560879
0.49402139 -0.00066868175 0.21941267
0.5055663 -0.00080867129 0.22278789
0.47532886 0.00022912752 0.20870724
0.54798949 -0.0010612082 0.22821851
0.58776665 0.0035933689 0.22326072
0.50231034 -0.012546912 0.21432689
0.49985924 -0.001544442 0.2205407
0.55113888 0.0020256988 0.22877295
0.57564569 -0.011261907 0.22155307
0.54398876 -0.001768392 0.22698385
0.50716817 -0.00041915476 0.21846318
0.56416953 0.0018460215 0.22815238
0.6121785 -0.0032941583 0.25683668
0.55152881 -0.0038985859 0.22975832
0.57975906 -0.007364491 0.23522709
0.59252381 0.00079601968 0.2294413
0.47575441 -0.0080299238 0.20825404
0.54031175 -0.014420432 0.21957843
0.50360155 -0.011431421 0.21524972
0.60583931 -0.0085429316 0.21546912
0.60932422 0.0045909216 0.25283951
0.60733521 -0.0066895578 0.25330335
0.6102429 -0.0087184049 0.25998557
0.49745774 -0.0058422494 0.22014269
0.58862382 -0.0036220273 0.26803264
0.49332052 -0.008071336 0.21763457
0.53843153 0.0033568849 0.21783458
0.57336086 -0.0096787205 0.22472478
0.60944778 -0.0024304397 0.25743636
0.48229381 -0.0022022848 0.21335122
0.5877353 0.0014387703 0.23166686
0.53526342 -0.0058162804 0.22688274
0.50745845 0.0056011216 0.22176483
0.48572966 -0.015806213 0.20563571
0.52041125 -0.012393142 0.22580615
0.48971197 -0.0093338992 0.21341625
0.51234961 -0.0060091363 0.22393778
0.6070677 0.0098902853 0.25605237
0.5548535 -0.00070703827 0.23032163
0.60038871 0.0064089233 0.24372812
0.47741669 -0.011968136 0.20488511
0.54051483 0.010173945 0.22931576
0.55240762 -0.01068453 0.22300184
0.54335248 -0.0082913935 0.22452141
0.52325964 -0.0018635446 0.22742866
0.52121216 -0.007000119 0.22571248
0.49393356 -0.009385976 0.21861535
0.60851252 0.001207197 0.25388601
0.60041755 -0.0031583763 0.2322347
0.58105052 0.0013171489 0.23019741
0.52928752 0.0067511117 0.22889501
0.53366959 -0.013126931 0.22824648
0.61722142 -0.0016259693 0.1953894
0.60888535 -0.0077995402 0.22210602
0.5541926 -0.010765804 0.21969181
0.58402497 -0.0020935494 0.2341003
0.49878043 -0.0040292609 0.21948245
0.54603893 0.0030082052 0.22117065
0.49040103 -0.014929047 0.20559646
0.55948055 -0.0028874334 0.22724316
0.60152054 -0.00060777587 0.2621783
0.60011315 0.0069574881 0.24533863
0.57192039 -0.0011270476 0.23063815
0.5339607 -0.013531231 0.22155114
0.59853619 0.0014641439 0.23024066
0.52889192 0.0050381231 0.22877236
0.56586522 -0.01075955 0.2222456
0.60110259 -0.002811753 0.23215735
0.6052494 0.0025878721 0.25846207
0.57125032 -0.0032638665 0.23315945
0.54352772 0.0019942427 0.22291961
0.55421513 -0.0062018 0.2249525
0.60651124 -0.00063428894 0.24722424
0.55226928 0.002984246 0.22360863
0.55779427 -0.0063573108 0.22459453
0.5651533 0.0042545926 0.23408771
0.60807842 -0.0093267672 0.26131713
0.58378601 0.003086572 0.22785193
0.60257787 0.0058915145 0.25550693
0.57931113 0.0036499109 0.22685121
0.60670292 -0.0033475561 0.24532475
0.52699405 -0.0046625594 0.22736387
0.60686451 -0.0087924581 0.26148415
0.53675938 -0.0056314641 0.22959991
0.60280764 0.0053435625 0.25507623
0.552288 -0.0016032716 0.22791255
0.52644259 -0.0048033344 0.22696456
0.51007926 -0.011819379 0.21572721
0.54745907 -0.0078075244 0.22653382
0.49468657 -0.0098668076 0.21419351
0.59805483 0.010643763 0.26030812
0.50866055 -0.0023588683 0.22465505
0.60870194 0.0041884049 0.25337309
0.60443449 0.0055437041 0.25558034
0.589194 0.0016997255 0.23245592
0.49390924 -0.0074836048 0.21472868
0.5878126 0.0028342975 0.26484171
0.59738904 0.003469452 0.25995022
0.49516502 -0.0022906701 0.214662
0.55388123 0.0056736399 0.21221907
0.58417028 3.7160211e-05 0.26792169
0.60126179 0.0031745268 0.22156931
0.54777038 -0.01466665 0.22958519
0.57735634 -0.012280591 0.21896721
0.60007429 0.0091538839 0.25979403
0.58096105 0.0073685208 0.23538114
0.55548543 -0.0073531182 0.22710918
0.48908666 -0.0082317321 0.21389456
0.49421382 -0.014848552 0.20769857
0.59946352 -0.0048682322 0.23035014
0.59318668 -0.0042694705 0.26563129
0.60787088 0.004339363 0.25026956
0.61175346 0.0015126524 0.19748275
0.50872338 -0.0076311678 0.22384587
0.56112862 -0.0064869802 0.22990124
0.58690441 0.0027679561 0.26518384
0.58051205 -0.013599312 0.21683429
0.52180922 -0.017770862 0.21164134
0.51199031 -0.00083597831 0.22049175
0.57801551 -0.015171639 0.2144388
0.58721828 -0.0088328989 0.26994041
0.49447003 0.0043727802 0.21660653
0.59792352 -0.010856627 0.25970668
0.59076303 -0.0043627601 0.22934517
0.51315165 0.0011862824 0.21865423
0.58966339 -0.0095839854 0.26769516
0.54758483 -0.010709938 0.22039928
0.54763907 0.00061788101 0.22814479
0.50363296 -0.010532547 0.21748625
0.51278007 -0.016982429 0.21219172
0.60657805 -0.0069168061 0.26163873
0.5444501 -0.01274257 0.22846171
0.59991002 -0.0015627875 0.2321763
0.52658147 0.0027565218 0.21694741
0.51101089 -0.017073723 0.21163684
0.50845104 0.0089060245 0.22067535
0.58440149 -0.013799482 0.21756294
0.48136458 -0.0026128737 0.20805824
0.59930027 0.0050753285 0.22115213
0.60093451 0.0031953615 0.22042209
0.51720238 -0.011938008 0.2181025
0.60236424 0.0051419134 0.21469802
0.5615375 -0.010904549 0.22231747
0.54634184 0.0066652084 0.23120174
0.47699299 -0.0093481112 0.20794487
0.57589191 0.0049390695 0.22619069
0.50414521 -0.011292642 0.21564336
0.49288842 -0.0091454443 0.21763067
0.59280437 0.0022773498 0.26528123
0.56999034 -0.0012766462 0.23395087
0.58200389 -0.0095924251 0.22735907
0.48203948 -0.00995347 0.21135612
0.59114265 0.0030775485 0.26358718
0.51649612 -0.0018137271 0.22175361
0.50834775 0.0019461804 0.21639061
0.54341656 -0.0049706963 0.22781476
0.60550058 0.0028487956 0.22633551
0.60774535 -0.010333963 0.26212707
0.57953924 -0.016307307 0.2131049
0.4837673 -0.0028392209 0.21367064
0.59020972 0.00066299958 0.23538789
0.61117655 -0.0076519805 0.24612078
0.50369555 -0.018803686 0.20744169
0.60044819 0.0051391595 0.26010633
0.48020044 -0.013402523 0.20531803
0.53151381 -0.0091294851 0.22401966
0.55738384 -0.014520828 0.21357031
0.61278957 0.0057602688 0.24038751
0.58754736 -0.0056749824 0.22865562
0.59814769 -0.0020530254 0.23763643
0.56259894 -0.0025342782 0.23176956
0.58602923 -0.0096542202 0.26793873
0.47628096 -0.0051919487 0.20927703
0.60789901 -0.0031692234 0.25859013
0.50045645 -0.0048574326 0.21854906
0.56874663 -0.0011867234 0.23335089
0.60098511 0.0045819008 0.21693449
0.56787395 -0.01442942 0.21542965
0.52645743 0.0025617471 0.2094866
0.5931769 0.0022240058 0.22439386
0.54750866 -0.012206332 0.22162955
0.55434787 -0.014103947 0.21510321
0.57380426 -0.007224319 0.23386776
0.58370709 0.0035850136 0.22500806
0.57540208 -0.0091298437 0.2266884
0.54446882 0.0040349108 0.23096398
0.54307878 -0.015113712 0.21674591
0.59424037 0.0022492257 0.22901621
0.56156975 8.7924956e-05 0.22817618
0.4739351 -0.0099548148 0.20450553
0.4963806 -0.013402479 0.20992653
0.47397748 -0.0059062061 0.20751585
0.57171357 -0.008985715 0.22918528
0.59431791 -0.0094926096 0.22098823
0.60480416 0.0088778334 0.2563889
0.52960634 0.0079232268 0.22857741
0.49289066 -0.013540118 0.20930859
0.47455013 0.00028543099 0.20833157
0.52047849 -0.012706537 0.20846371
0.51024228 -0.012548615 0.21527641
0.59485388 -0.00013940468 0.23160872
0.58487457 -0.0042350865 0.26799393
0.59546441 0.00017675215 0.26425719
0.4788911 0.0081215426 0.20967302
0.53209227 -0.0021834532 0.22921798
0.59959376 0.0035918867 0.22328243
0.56984067 -0.0073601524 0.23073478
0.57466274 0.008062453 0.21955426
0.56245798 -0.010824537 0.22115228
0.60395932 0.0071219052 0.25567478
0.52697974 0.010518838 0.22637889
0.59516716 -0.0018375325 0.23619863
0.58927506 -0.00010796055 0.23132023
0.60709816 0.0029359499 0.22814001
0.60156971 0.0057002506 0.24925129
0.51606393 -0.0043051047 0.22358896
0.58797175 -0.0038705075 0.23219685
0.55656117 0.00091555424 0.23108056
0.50724494 -0.009735941 0.2184528
0.51182634 -0.002154886 0.22514829
0.58346492 -0.012825685 0.22103986
0.55616641 0.0050946022 0.22989284
0.54389656 -0.0036648142 0.22778289
0.53661907 -0.0057317279 0.22767143
0.49686256 -0.0082654553 0.21803565
0.5851596 -0.0070946389 0.27094638
0.6057564 -0.0022509585 0.26017514
0.54767084 -0.00040843277 0.22528078
0.47935435 -0.0018129601 0.2120637
0.60702944 0.0078881206 0.21852073
0.57914239 0.0016841558 0.23562554
0.55790305 -0.0055384049 0.22938316
0.49972123 -0.0049111373 0.21882604
0.52841681 -0.0026166188 0.22555949
0.54601675 0.0063133324 0.23076791
0.59961492 0.0079946397 0.25928113
0.47998193 -0.0029191377 0.21158364
0.60050833 -0.0056362483 0.25930998
0.55227208 -0.0022149712 0.22832446
0.53369343 0.0012211328 0.22128192
0.60097152 -0.011496556 0.26452956
0.59179366 -0.0024734056 0.23319358
0.50002497 -0.0044741239 0.21982095
0.61151415 0.0047714678 0.25050649
0.59534454 -0.0030995808 0.23067398
0.59678358 -0.0027009221 0.23502475
0.60546714 -0.0016517543 0.25990245
0.59116799 0.0051930421 0.21946807
0.61208683 -0.0042161336 0.25156456
0.51981312 0.0043355981 0.21116272
0.59926152 0.0036642381 0.22337706
0.58060694 0.0060956241 0.2325294
0.5506987 -0.010472426 0.22258684
0.52406597 -0.011944191 0.21636169
0.51092833 -0.014184437 0.21308343
0.58294177 0.00571578 0.22010377
0.52299708 -0.0028761909 0.22348945
0.49692279 -0.0040360787 0.21633752
0.59988731 0.0068588899 0.25920808
0.58557957 0.0018764496 0.23035264
0.60049313 0.0063081775 0.24100301
0.58579904 -0.004898333 0.23162769
0.56296808 0.0056057982 0.21855591
0.48363125 -0.014190875 0.19845419
0.60748744 0.0030170288 0.2541762
0.49614546 -0.013207396 0.20994452
0.50885928 0.010257454 0.22053796
0.47749668 0.0026505664 0.21030217
0.59436941 0.0013735609 0.23678748
0.51439452 -0.010204344 0.22058423
0.48737654 0.0020292918 0.21649022
0.50113171 0.0013613602 0.21223105
0.61022615 -0.0014813246 0.24858946
0.51018488 -0.011151036 0.2176303
0.59294921 -0.010232728 0.26467124
0.59686249 0.0077935853 0.26031804
0.47403774 -0.012956953 0.20234515
0.60377038 -0.0097382395 0.26343808
0.5874539 -0.015732182 0.21509941
0.50220418 -0.00038686107 0.22129786
0.51163119 -0.00043274314 0.2203788
0.588193 0.00095877558 0.26685923
0.57515299 -0.0085359225 0.22715525
0.5193857 -0.0093141533 0.22391517
0.52155393 -0.0061919503 0.22602746
0.60688967 0.0045157797 0.22336172
0.5982635 -0.0012367164 0.23182407
0.53710115 -0.0061317193 0.22763456
0.48755249 0.0020397725 0.19977437
0.55987155 -0.0012071027 0.23128772
0.48438367 0.010094266 0.2113647
0.51868808 -0.011179441 0.21946171
0.52429634 -0.0031417632 0.22438169
0.56923151 -0.0037256519 0.23309045
0.50090963 -0.010620244 0.21711282
0.56497896 0.00010033236 0.22643441
0.6058917 -0.00038187549 0.25402167
0.58298981 -0.0062809866 0.23180903
0.55803442 0.0019655223 0.2283206
0.58319217 0.0056704553 0.23118132
0.48522705 -0.015115323 0.20404039
0.57986182 -0.0070576691 0.2322668
0.4868331 -0.018832443 0.19834881
0.6066128 -0.0055792821 0.26073807
0.5413419 -0.0035583558 0.22700807
0.59251428 0.004046829 0.22092336
0.52677715 0.00048079566 0.22219209
0.51288015 -0.000183943 0.22581396
0.58226556 -0.0036777589 0.23298395
0.61291617 -0.0047108154 0.25091374
0.47267693 -0.0068691317 0.20610851
0.57050407 0.001162035 0.23004523
0.58993047 -0.010773239 0.2700617
0.58619231 0.0027060881 0.23474324
0.50422794 0.0015070075 0.22083865
0.57302678 0.0051729428 0.22471742
0.53655255 0.00031464253 0.22320317
0.5969373 -0.0014027337 0.2633974
0.60569566 0.00092282344 0.25365481
0.58742779 -0.010094057 0.26708159
0.60148823 0.0084129022 0.25874689
0.50696498 -0.0082416069 0.22373073
0.61351991 -0.0062537659 0.24723019
0.60869104 -0.0072405012 0.25115204
0.60292774 -0.0061218501 0.2626785
0.47843942 -0.0055241669 0.21018827
0.50438648 -0.019092431 0.20697467
0.58078039 -0.0069937892 0.23454338
0.51196718 0.002775674 0.21556218
0.58524799 0.010163634 0.23568043
0.516298 -0.00047775544 0.21968006
0.5626123 0.0053756926 0.21886094
0.6058436 0.0033543555 0.2258535
0.56931728 -9.031142e-05 0.2344657
0.52731079 -0.0026306254 0.22767964
0.48144186 0.00630556 0.20969951
0.55592209 -0.00097199203 0.23069862
0.59274948 0.0010999314 0.23571765
0.49047959 -0.0082788477 0.21195531
0.55813849 0.0065392139 0.23066206
0.48694235 0.0076266951 0.21497472
0.594289 0.00079324644 0.23631616
0.58781451 0.011307584 0.26502627
0.60806417 -0.0077309911 0.23244968
0.56444502 -0.0041354722 0.23022367
0.52723253 -0.0048604487 0.22734563
0.56657487 0.0079736849 0.2335337
0.58167726 -0.0047648423 0.23043846
0.60693675 0.0053236522 0.22153264
0.59483916 -0.010431915 0.26645565
0.52695972 -0.0030480623 0.22591037
0.5403555 0.0044452152 0.23041637
0.52426058 -0.016135573 0.21658318
0.5854575 0.0027225562 0.22737582
0.59618145 -0.0064659212 0.26452711
0.58382815 -0.0023506298 0.22975907
0.57691443 -0.0039433921 0.23045631
0.56612802 0.0024855447 0.22896163
0.55854201 -0.0093565965 0.22120738
0.4908675 -0.0094174445 0.21397367
0.52230555 -0.001071986 0.2275016
0.60822248 0.0027662993 0.24929713
0.48317781 -0.0081723416 0.21096197
0.53791082 -0.011153426 0.22382514
0.6072281 -0.0054442706 0.26038465
0.60981232 0.0045892242 0.25415492
0.58937383 -0.00036711336 0.26723063
0.51976782 0.0055277408 0.22695208
0.48817882 -0.010103852 0.21202669
0.5943011 -0.010216377 0.26286724
0.54017377 -0.0082791476 0.22498938
0.57144654 -0.0099655157 0.23287316
0.57252651 -0.0071483743 0.23097666
0.56391114 -0.011434779 0.22141279
0.60553211 0.0075191618 0.25525433
0.48195562 -0.0077358978 0.21214333
0.53932196 -0.0080745472 0.22603734
0.59213841 -0.011917949 0.26398587
0.53739262 0.0036331262 0.21045439
0.52617604 -0.010564666 0.22257027
0.48911953 -0.015598471 0.20682336
0.55274695 0.0026028825 0.22493009
0.58483458 -0.0078309039 0.27157342
0.47200924 -0.0098155746 0.20357651
0.57321239 -0.0038029428 0.23185591
0.59271324 0.0036845922 0.23625219
0.60281032 0.0098616648 0.25782833
0.58665717 -0.0061516613 0.26856411
0.55908501 -0.0092351167 0.23005034
0.51130646 -0.012411748 0.21459417
0.52245831 -0.012807809 0.22647625
0.48138463 -0.014732603 0.20812024
0.55588597 0.0033884877 0.21924144
0.58909798 0.005710132 0.23581003
0.61094844 0.0050195903 0.24931104
0.57092619 -0.0096707279 0.22690457
0.48857838 0.0052518058 0.21545206
0.51989931 -0.0067370869 0.22482777
0.60856885 -0.0079861479 0.23705964
0.48818481 0.0052802619 0.2152622
0.53092867 -0.016112627 0.20881033
0.5109303 0.0053833467 0.21045861
0.58230615 -0.011281376 0.23545435
0.58565652 -0.0028087592 0.26853368
0.57751149 0.0063300678 0.23273169
0.5593822 -0.001736718 0.23063475
0.57350445 -0.0056624478 0.23296206
0.50164515 -0.014918837 0.21191719
0.52530676 -0.01633683 0.22759117
0.50994766 -0.0072601279 0.2217278
0.50861287 -0.0001901901 0.22293533
0.52377641 -0.011080805 0.22235636
0.49405465 0.0081170863 0.21508694
0.60252106 0.0019745308 0.22691905
0.60795462 0.00021940623 0.25759599
0.59489948 0.0007604303 0.23321366
0.51013345 -0.013226952 0.21336414
0.48498577 0.0020645128 0.1983116
0.60724092 0.005702083 0.25172368
0.60503834 0.0025799794 0.2343549
0.55957818 0.0033404219 0.22850813
0.59489375 0.001191114 0.26210201
0.60994649 0.0049934383 0.25230595
0.57235163 0.0023708402 0.22813667
0.56146592 -0.011751652 0.21976073
0.54516774 -0.011613423 0.21167083
0.60099047 -0.010822015 0.25594682
0.59955287 0.0022601604 0.22672957
0.56062561 -0.0027682704 0.23053968
0.58227831 0.0064607393 0.21989509
0.51296049 -0.015346149 0.21435732
0.5655238 -0.014286505 0.2165067
0.59851319 0.00058152282 0.26268104
0.5206514 -0.00045095917 0.22161593
0.55288827 -0.0054249554 0.23018588
0.60881114 -0.0014819745 0.25336605
0.58545834 -0.00038109292 0.23197854
0.57970572 0.0013143813 0.23077627
0.54277641 -0.005910886 0.22975096
0.49285021 -0.0044235988 0.215795
0.53706348 -0.0007166632 0.22494079
0.49171987 -0.011193415 0.21176641
0.60153449 0.0022231601 0.24125314
0.60119033 -0.00084762357 0.25820729
0.48083067 -0.0096255774 0.20979616
0.60768008 0.0071766721 0.25538528
0.53895986 0.0023680783 0.22788937
0.5118292 -0.016051274 0.21315967
0.57562268 0.00088455004 0.2358565
0.60552531 0.001800572 0.24713945
0.48811856 -0.0030531026 0.2171974
0.51633757 -0.007919766 0.22586535
0.56765658 -0.0030448677 0.23274903
0.58240134 -0.00038092467 0.23201625
0.47673628 -0.0028612716 0.20988747
0.5260756 -0.010059506 0.22424257
0.56333953 -0.014054688 0.2163236
0.59347731 -0.0021680426 0.23354281
0.54902381 0.002653602 0.23103163
0.60297626 0.0037374322 0.25527096
0.56276673 -0.0074533978 0.22432101
0.54551727 -0.0018014421 0.2271273
0.58977604 -0.0024131292 0.23274553
0.50854796 -7.5158605e-05 0.21891721
0.47474781 -0.005961901 0.20788747
0.48480743 -0.011974012 0.20884039
0.48672763 -0.0056485636 0.21140513
0.60213828 0.0087418072 0.25867349
0.50806761 -0.01490246 0.21237433
0.47950262 -0.012823592 0.20537139
0.53932178 -0.011767608 0.21113177
0.50661039 0.0023448227 0.21559824
0.59583336 -0.0018661766 0.23121969
0.54205614 -0.015769221 0.21553275
0.56255788 -0.001527532 0.22802006
0.60338151 0.00085720781 0.26040962
0.6003052 0.0074480744 0.24309683
0.60516709 -0.0011155521 0.24614899
0.50409561 -0.015452447 0.21180432
0.58870262 -0.010775768 0.27059022
0.57257414 -0.0021673623 0.23104662
0.51243049 -0.0063711503 0.22371399
0.55865949 0.0013152618 0.22324596
0.58162123 0.0054404945 0.22212656
0.48079976 0.0084381942 0.20957592
0.51463151 -0.016221855 0.21311979
0.55621696 0.001539609 0.22414538
0.5140689 -0.0068457723 0.22424154
0.5708195 -0.0013365982 0.23435086
0.60601175 0.003599151 0.23453611
0.56275648 0.0028135648 0.22809273
0.58705872 -0.0030800882 0.23307925
0.61223495 0.0068773143 0.23861189
0.54559326 -0.01609732 0.21259831
0.50704819 -0.00055836787 0.22376652
0.52773511 -0.016634865 0.20859285
0.58716315 0.001459307 0.26552188
0.58808577 -0.0021285207 0.23200843
0.51084149 0.0023671 0.21631575
0.58512765 0.001381623 0.23454884
0.51154828 -0.00026701408 0.22503911
0.48127919 -0.0082538528 0.21104871
0.50791097 -0.00097818929 0.22391894
0.52433884 -0.0073340349 0.22586595
0.55153978 0.001909133 0.22463363
0.55964702 -0.0038275013 0.22923374
0.51651281 -0.0011709863 0.22132079
0.48311079 -0.0071576419 0.21283892
0.61172777 0.00074870035 0.19419853
0.59551382 -0.01130554 0.26044816
0.56523508 0.00085686857 0.22834529
0.55472827 0.0045588408 0.21768931
0.50637263 0.0030797573 0.21393968
0.57280117 -0.010202026 0.22887044
0.5859285 0.0054116878 0.23111546
0.55763996 0.0024600383 0.22292529
0.5110777 -0.002889792 0.22555825
0.58492804 -0.0096820369 0.22607268
0.52097166 -0.0019503462 0.22749215
0.55264014 0.0013791847 0.22899106
0.57906157 0.001991668 0.23067953
0.58025932 -0.015942965 0.2130236
0.56245804 -0.011151252 0.2212752
0.51781493 -0.0083069773 0.22381687
0.54616451 -0.011495234 0.21229205
0.5058161 0.00054561684 0.21713056
0.5439561 -0.011431064 0.22235394
0.58870059 0.00045461152 0.23190504
0.60651398 0.0048243762 0.24990052
0.56374788 -0.00018983889 0.22833391
0.49203083 -0.0023758789 0.21843977
0.6036579 0.00046962837 0.24245013
0.50881737 -0.017836507 0.20960701
0.58485597 -0.007493976 0.23439977
0.61049652 0.0046621272 0.22299103
0.58105612 0.003622395 0.22739455
0.54713285 0.0039126128 0.23094764
0.54024124 0.0068425322 0.2294175
0.6070292 0.0096051022 0.25589481
0.53115869 0.0027163636 0.21628395
0.6048193 -0.0031192617 0.26115227
0.60718197 0.0084867841 0.25514901
0.51758659 -0.0090053566 0.22317918
0.49310005 0.0024195716 0.20605947
0.49496141 -0.010850783 0.21240257
0.57916552 0.0094984127 0.21667132
0.50355643 0.0050692256 0.22063515
0.5621751 0.0005639639 0.2324754
0.59862643 0.010747373 0.23921868
0.59588391 0.0042693233 0.26264074
0.60664612 0.0040055043 0.25388843
0.59047955 -5.5814403e-06 0.2295754
0.52508861 -0.017200615 0.21060741
0.6018157 -0.00093924615 0.26227114
0.47580245 -0.0020865542 0.20995887
0.57328409 0.0020178827 0.23188469
0.60833365 0.010265127 0.25574753
0.49845314 -0.011103238 0.21408698
0.48694304 -0.012792849 0.20802692
0.56466228 -0.0005607187 0.23297797
0.55383366 0.0010275999 0.22951859
0.51250982 3.2436426e-05 0.21841986
0.48537245 -0.0060254331 0.21353278
0.59525663 0.0071134358 0.26058003
0.60997975 -0.0055054789 0.25924456
0.56466675 0.0013839619 0.2257183
0.52643186 0.0031049019 0.21805476
0.60894024 0.0029538511 0.25536221
0.5170877 0.0045410655 0.2261415
0.60426462 0.00092444092 0.24581751
0.55571645 -0.0056863725 0.22846289
0.60050219 0.0063771424 0.25594571
0.49183053 -0.0092363497 0.21687092
0.49649248 -0.010000296 0.21655716
0.54534876 -0.0098484447 0.22254376
0.55379033 0.002375656 0.22463289
0.4858664 0.00080813537 0.21613342
0.56135607 0.0059294379 0.21648555
0.55485648 -0.010654842 0.22298241
0.5328058 0.0035426514 0.20356548
0.52559298 -0.0091754226 0.22782113
0.54033989 -0.01097599 0.22291005
0.49814579 -0.011435897 0.21367684
0.55076236 -0.0090907617 0.23097803
0.60062474 -0.0012278543 0.23821913
0.48317924 -0.01529701 0.20702034
0.52713829 -0.00098659366 0.2288004
0.4837442 -0.0046745893 0.21365727
0.5980978 -0.0072183707 0.22824882
0.50795037 -0.010321188 0.21839887
0.56748819 -0.0036661928 0.23039986
0.48644695 0.0061259265 0.21495517
0.51383799 -0.011373688 0.21806984
0.50443405 -0.012774628 0.21453801
0.52387869 0.0034502025 0.21000467
0.58159453 -0.0053773145 0.23010008
0.61301023 -0.0018754336 0.24979022
0.60386813 -0.0052505704 0.26169801
0.59823751 0.0016266553 0.26338097
0.57825989 0.0070704687 0.22248933
0.57246566 0.0065869018 0.23566636
0.4889968 -0.0047749002 0.21775068
0.59246296 -0.0078155939 0.26701641
0.51206398 -0.0090158749 0.22156599
0.61264169 0.0068604737 0.23590085
0.52133244 -0.0077901999 0.22472939
0.609007 -0.0085282652 0.2340557
0.55414611 0.002605763 0.22432786
0.61279631 -0.0049555055 0.25639802
0.54751015 -0.0096667977 0.22317643
0.54239231 -0.0070722476 0.23068488
0.53826439 -0.0025152569 0.22689046
0.48842371 -0.0027228426 0.21760458
0.56556672 -0.012792914 0.21864326
0.5405724 -0.015041935 0.2190899
0.56033182 -0.0040797973 0.22615793
0.56753498 -0.0018639606 0.22918625
0.53609693 0.0035542632 0.21488404
0.48628783 -0.0050346553 0.21475431
0.55958557 -0.0062713614 0.22739743
0.57877815 -0.014492447 0.21453144
0.54388863 0.0018544005 0.22798912
0.47551063 -0.0051362533 0.20890541
0.50760651 0.0021076135 0.21660174
0.60937017 -0.0066356286 0.25123453
0.52420634 0.0034432418 0.20732102
0.54810721 -0.0029430413 0.22804594
0.59186727 -0.0057886997 0.2280111
0.60519183 -0.0040095621 0.24402665
0.49726933 -0.01700867 0.20638821
0.60200202 0.0062340717 0.25744072
0.4892329 0.0020998886 0.19773969
0.47951505 -0.002531779 0.21161935
0.60465896 0.0049860338 0.25532302
0.4872258 -0.0066879112 0.21403684
0.54761147 -0.0067077754 0.22742701
0.60802966 -0.01120569 0.26258239
0.60136342 -0.0078643737 0.26322985
0.51878196 0.0045104604 0.21403703
0.59250331 0.0023429166 0.26536697
0.55138952 -0.0053582699 0.22541226
0.49249178 0.0014317512 0.20952228
0.5704872 -0.0057061557 0.23230171
0.56732267 -0.006420332 0.23102096
