# .PCD v0.7 - Point Cloud Data file format
VERSION 0.7
FIELDS x y z
SIZE 4 4 4
TYPE F F F
COUNT 1 1 1
WIDTH 1391
HEIGHT 1
VIEWPOINT 0 0 0 1 0 0 0
POINTS 1391
DATA ascii
0.5441125 -0.0038294399 0.25073326
0.53421503 -0.0029260698 0.21385768
0.4851892 0.021616414 0.23811822
0.51548576 -0.049639449 0.25462306
0.53938252 -0.014995864 0.25376725
0.51014537 -0.06122952 0.22179359
0.49772587 -0.061958995 0.24962322
0.47057292 0.018587317 0.24833797
0.48350567 -0.057013132 0.19987263
0.48686117 -0.055758785 0.22944725
0.53041303 0.0060473806 0.23197821
0.50147378 0.020940863 0.19523531
0.50956786 -0.060306378 0.20869207
0.53208047 0.0086881574 0.24704514
0.52955765 -0.051420625 0.24390398
0.50215292 -0.060200982 0.2513158
0.47764534 -0.053990062 0.25174367
0.47901845 0.010617157 0.22704019
0.48395893 -0.055985097 0.19899741
0.53821129 0.006973586 0.2473906
0.52419013 0.013444941 0.20836474
0.49435285 -0.058077842 0.24050298
0.47522494 -0.046761118 0.23231073
0.49794209 -0.05278552 0.2550582
0.49550408 0.017905252 0.25085509
0.51426792 0.02032348 0.2379974
0.50987709 0.026156107 0.24390593
0.51767206 0.01695542 0.20464432
0.48235404 -0.05203506 0.22637051
0.53075463 0.0020674965 0.20078781
0.48805898 -0.056547645 0.24856268
0.53812146 0.0034670187 0.24975041
0.51829845 0.021271853 0.24889007
0.49138585 0.026774026 0.24254738
0.50323558 -0.055314809 0.25468263
0.52591419 0.012304737 0.22605352
0.49456239 0.030629229 0.23774135
0.49181357 -0.057336506 0.24365065
0.52652824 0.011938327 0.2328838
0.52219182 0.017761413 0.21069585
0.4983308 0.023468465 0.2466331
0.4691157 -0.041168939 0.22240888
0.50604963 0.023210187 0.19498824
0.53413355 0.009415606 0.24879946
0.51234013 -0.058910396 0.242245
0.50222623 0.023480169 0.19719476
0.49903131 0.042113796 0.22694555
0.47569561 0.0076195044 0.21541603
0.51595187 0.022314964 0.24569038
0.519005 -0.049112502 0.25419536
0.484231 -0.053113397 0.22755195
0.46305913 -0.022099033 0.24286628
0.46323502 -0.0054399911 0.2015181
0.50946087 0.020627871 0.2111654
0.46417564 -0.023010589 0.24299011
0.50819707 0.021514878 0.207683
0.51319224 -0.059228472 0.25100648
0.49354625 -0.057465125 0.2366223
0.50450778 0.021771912 0.24423961
0.5012396 0.018762833 0.23009658
0.51070845 0.023712352 0.22629967
0.46827182 -0.0041829906 0.22629283
0.54974884 -0.014901082 0.25181982
0.45677331 0.010504265 0.24985005
0.48117876 0.021082405 0.20306945
0.52024138 0.016929373 0.20339745
0.49841094 -0.060184002 0.22359405
0.5058974 0.038393512 0.23282835
0.50580877 -0.058594413 0.2346504
0.47587168 -0.046958085 0.20286478
0.53581733 -0.0066258423 0.21063413
0.49921483 0.045820989 0.22186503
0.51033312 0.01229687 0.19597031
0.45517695 -0.031768478 0.25029126
0.49424195 0.021772245 0.2488374
0.49019605 0.018784512 0.21361126
0.4626551 -0.02614088 0.19858293
0.53668267 -0.007899534 0.25078294
0.48771816 0.022330686 0.20208928
0.47113514 -0.044009965 0.23629288
0.54233092 -0.0011878808 0.24847603
0.47273612 -0.044794805 0.2325118
0.49691564 0.024112061 0.19751482
0.47298673 0.0029371963 0.2298848
0.53103524 -0.05181453 0.24607778
0.46854687 -0.037798479 0.24325855
0.53284967 -0.00092831667 0.20647347
0.47671887 -0.048266359 0.22125739
0.46110001 -0.036846001 0.25108162
0.46015239 0.0097822445 0.25113347
0.50977081 0.029227531 0.24780475
0.46452227 -0.017466119 0.23845197
0.4979133 0.025078461 0.22720097
0.46290708 -0.026335932 0.20115153
0.50069344 -0.062189877 0.22139379
0.45504826 -0.031190272 0.25064883
0.47403303 -0.048195831 0.25181752
0.51511699 -0.057544533 0.22231421
0.49751785 0.024264868 0.1979513
0.54365283 -0.0020670211 0.24849017
0.53446841 -0.0014991047 0.24483776
0.46769869 -0.034653906 0.2249812
0.49961898 0.024072198 0.22872923
0.49250561 0.020376941 0.24471807
0.47464976 -0.046041287 0.25286946
0.53114575 -0.036734574 0.25496149
0.49215183 -0.057438206 0.22319107
0.49852088 -0.054693189 0.25396132
0.53343016 -0.040413417 0.22404261
0.51297492 0.021566391 0.24178842
0.505117 -0.058958653 0.23773639
0.50911522 0.022803716 0.24431384
0.50175816 0.026182115 0.23549867
0.53389758 -0.0044561108 0.19766241
0.46618599 -0.0048187082 0.24047418
0.47784334 0.011373448 0.24168514
0.49868411 0.024234056 0.23240854
0.50778437 -0.061378345 0.24838322
0.48012456 -0.050644167 0.21591656
0.51791924 0.01866148 0.21967715
0.49447197 -0.060491294 0.25351408
0.49376655 0.024852935 0.23699266
0.4875443 0.023112046 0.20257251
0.48109487 0.026211634 0.24878785
0.49202698 0.026078176 0.21935833
0.46818674 -0.038177475 0.19907935
0.46583113 -0.034317061 0.25003871
0.53901947 -0.0098985303 0.25462604
0.46814084 -0.035463322 0.22405326
0.46302181 -0.016683755 0.19973898
0.49728945 0.032046333 0.25232017
0.45738569 -0.028252391 0.25271943
0.53818029 -0.0097381733 0.25293919
0.49569812 0.034624349 0.23460887
0.53444827 0.0011345773 0.24677075
0.4636265 -0.010130274 0.24578568
0.46719024 -0.035588957 0.1952462
0.54655284 -0.025649538 0.24989915
0.46092775 -0.036316026 0.25002605
0.49255642 0.019494472 0.23420373
0.54518855 -0.0077235741 0.25157499
0.46376538 -0.003139334 0.25247309
0.53552747 0.014255262 0.24898161
0.52274984 0.016058533 0.2298314
0.47785467 0.0089653861 0.21905844
0.475463 -0.046930462 0.22849904
0.47425658 -0.045810033 0.23257977
0.46748766 -0.036471277 0.19697635
0.46639353 -0.029143473 0.24175198
0.49167821 0.019800775 0.24347167
0.50230974 0.04100984 0.23008974
0.48506823 0.016248634 0.2316516
0.45495477 -0.01697463 0.25296578
0.53761286 -0.0075561744 0.2528905
0.51348811 0.022031862 0.21978284
0.46920922 0.000953332 0.24395856
0.48738933 0.017336989 0.22884667
0.49087664 0.023589702 0.24985029
0.48707247 0.026157962 0.24383654
0.48862225 -0.056882683 0.24599482
0.53481585 -0.0061033973 0.19558604
0.48302799 -0.052658085 0.23286268
0.52915049 -0.036902416 0.25376511
0.52991408 0.0090215271 0.21520491
0.46941891 0.0010872318 0.24644056
0.52465564 0.012918931 0.21770562
0.51285923 0.020962862 0.19563574
0.45357358 -0.019939112 0.25003543
0.53159863 0.0019422066 0.24041858
0.47796598 0.015520957 0.24913675
0.53955859 -0.036679074 0.25235441
0.52093333 0.015600216 0.20008011
0.46345687 -0.0028365992 0.25278753
0.47525182 -0.04629229 0.22734231
0.47369745 0.0043444009 0.21301982
0.50502449 -0.060350835 0.2463408
0.5022527 0.020486549 0.2500692
0.51381207 0.02189672 0.2212114
0.48611939 -0.055768698 0.22467701
0.53434908 -0.0075693298 0.23216872
0.47818208 -0.049473953 0.218824
0.53921348 -0.013719388 0.25326443
0.51707208 -0.059665732 0.1948539
0.50740033 0.022469409 0.2032923
0.51065964 -0.053183548 0.25347555
0.53877991 0.004970103 0.24568924
0.46570894 0.017323418 0.24885303
0.51626509 0.019557875 0.19507533
0.52270788 0.020587163 0.21593226
0.48139593 0.015856918 0.24416164
0.4649536 -0.017983858 0.23546593
0.48171106 0.01992715 0.24899617
0.51254481 0.026635954 0.25246465
0.5075773 0.03980983 0.23244306
0.50197828 -0.061954066 0.20794733
0.47358149 0.0050687343 0.21973205
0.4883523 -0.054507781 0.21477929
0.53781927 0.0047081881 0.24905862
0.53338557 0.017592473 0.24942811
0.47642526 -0.046207543 0.21486865
0.46636179 -0.0018499945 0.19740789
0.4760173 0.024917386 0.24916571
0.51731735 -0.056668792 0.21951553
0.53561169 -0.042379562 0.21943651
0.4513188 -0.014497637 0.25148544
0.50288182 0.038461689 0.23280464
0.46579847 0.005772383 0.25082028
0.50158221 0.018659348 0.23113352
0.51423329 -0.053733777 0.25363624
0.47153679 -0.040816806 0.21467377
0.49318883 0.029698413 0.24973723
0.52765781 0.011053151 0.22877526
0.48128322 -0.051463462 0.23536903
0.52209049 -0.057399187 0.24724737
0.51343459 0.027669162 0.24655522
0.49055088 0.02664244 0.2433556
0.53233993 0.0005191114 0.21268426
0.47248358 -0.042709734 0.20787705
0.52443832 0.011914128 0.2005977
0.53638726 -0.018137535 0.24306792
0.47160822 -0.042690136 0.24263401
0.48988077 0.026470549 0.21984839
0.48642477 -0.055480208 0.24473648
0.47238368 -0.043759458 0.22496176
0.52666819 0.016073057 0.24262445
0.53482014 -0.015525009 0.21842541
0.50424004 0.022412181 0.24474242
0.49223915 0.022118878 0.2469205
0.45197392 -0.013647669 0.25111079
0.50977844 -0.060033385 0.23007634
0.50767398 0.024755619 0.22273035
0.4802157 -0.050243642 0.2337462
0.53649032 -0.028624838 0.25434086
0.52584672 0.012015114 0.22174112
0.46845615 -0.036386617 0.2347198
0.49844474 0.025194228 0.23569681
0.5212484 -0.059148531 0.1952654
0.53743684 0.0073522264 0.2477062
0.45994452 0.0099551333 0.25114933
0.47136796 -0.042073041 0.23086406
0.46625191 -0.036157545 0.24874052
0.51261431 0.024529766 0.24823928
0.45307273 -0.011199249 0.25215435
0.5360589 -0.0057161166 0.21278955
0.53630102 -0.043864898 0.21450798
0.50069708 0.047393903 0.21891327
0.50866568 0.017764347 0.2198181
0.53053141 0.011952429 0.25264958
0.51813143 0.021997206 0.25068974
0.46776432 -0.0018052865 0.24288803
0.5297941 0.0088153388 0.23639667
0.51780194 0.019286251 0.20382573
0.47357565 0.027782293 0.24996775
0.51325327 0.022215489 0.22656278
0.54507464 -0.0055126939 0.25143427
0.48663878 -0.052510183 0.21397847
0.50637496 -0.061476178 0.25160107
0.48974684 -0.054610703 0.21545291
0.51337647 -0.061106347 0.25344428
0.45828763 0.010550056 0.25069782
0.50205261 0.025327621 0.20929793
0.47092924 -0.046962254 0.25084901
0.5368287 -0.013134576 0.24564359
0.53312659 0.015685657 0.24837616
0.50062811 0.025369417 0.23861776
0.48010784 0.010884515 0.22425471
0.46519989 -0.029776145 0.2432072
0.54237884 -0.006104887 0.2529842
0.49106929 0.029160604 0.24820101
0.5185259 -0.053548545 0.2173513
0.50212628 -0.059426639 0.23805693
0.51862323 0.017070366 0.19721521
0.52782422 0.020443689 0.24853174
0.51649231 0.020478679 0.22025134
0.5310573 0.0027515648 0.20551774
0.47680071 0.0066352696 0.2305284
0.52487886 0.012941733 0.22325891
0.52972049 0.004637463 0.20483698
0.51331246 0.022270884 0.22798963
0.4741157 -0.047587026 0.2521534
0.50433183 -0.062445331 0.21108314
0.46454781 -0.013527122 0.23461761
0.4699443 -0.002278565 0.22550282
0.5344274 0.0078870161 0.24968512
0.4625884 -0.018132376 0.24881728
0.47658142 -0.048059221 0.25331497
0.53228295 0.0040282039 0.24232599
0.50675929 0.017524315 0.22206967
0.48282421 -0.054279495 0.24166662
0.47079653 0.00053463876 0.2206343
0.52114195 -0.048649192 0.25433183
0.52216494 0.0088599436 0.23010497
0.53700924 0.0062372866 0.24596314
0.47772631 -0.047704563 0.25429258
0.52681649 0.01186413 0.22621334
0.5084191 0.025146799 0.23831493
0.53529119 -0.0030404965 0.21570578
0.52582806 0.014289867 0.21856788
0.48174834 0.020379877 0.20150296
0.53306645 -0.045976631 0.21334164
0.53078169 0.00084096065 0.23239607
0.47935575 0.012736814 0.23938867
0.49477547 -0.058562882 0.24446407
0.50505614 0.043393228 0.22860618
0.48832875 -0.05391578 0.21384944
0.47870958 0.0098530892 0.2316829
0.51840603 0.017918309 0.20178668
0.52612817 0.010966647 0.22247271
0.52538186 0.014471746 0.24497038
0.52323502 -0.054146674 0.23950733
0.4693101 -0.0013244984 0.23257343
0.51647013 -0.050458211 0.25454789
0.51390147 0.018364599 0.20335914
0.50986964 -0.059941296 0.2452624
0.53149021 -0.036759995 0.25512788
0.53267848 -0.052407362 0.24958593
0.50351578 0.032615468 0.23385461
0.50799364 0.026295546 0.24570468
0.46584165 -0.034633875 0.2461472
0.53319603 -0.05366971 0.25402081
0.47090808 0.0028180992 0.23939997
0.47941408 -0.053515419 0.24772097
0.53683949 -0.040146008 0.2215233
0.48317677 0.015651479 0.23333001
0.48552647 -0.058802243 0.25369063
0.53579307 0.0026031211 0.2526398
0.47846022 0.022313718 0.20387107
0.52348036 0.012381895 0.20042804
0.47930351 -0.049841184 0.23005007
0.46335799 -0.014508201 0.20216644
0.49747089 0.045589074 0.22276762
0.49389088 -0.058604766 0.24614562
0.46630746 -0.032439325 0.24322052
0.53778523 -0.026159722 0.25414801
0.49819082 -0.05251696 0.25539008
0.47608528 0.010663345 0.24448293
0.48626411 0.02408411 0.25085196
0.54532868 -0.037116691 0.24965474
0.49426484 0.022665326 0.24823639
0.52569014 0.010893093 0.22082886
0.49419722 0.02826797 0.2478694
0.53625208 -0.0078442618 0.24517578
0.51755637 0.020903751 0.21829738
0.54227614 -0.010646103 0.2558248
0.46973684 0.0029076994 0.19390404
0.49674338 0.028133435 0.24643046
0.49055684 0.024426766 0.20516214
0.50870633 0.022344202 0.24606746
0.50042975 -0.059919849 0.23656443
0.46423423 -0.036144964 0.25038561
0.48461217 -0.052346863 0.25353974
0.5291307 -0.04105312 0.25339925
0.50189251 0.038088765 0.23220259
0.5190205 0.018894218 0.24616919
0.4766348 -0.054360934 0.25194398
0.50701559 0.021953695 0.24329281
0.4955155 -0.061542582 0.24956442
0.53899127 -0.013534555 0.25328138
0.46209899 -0.024256516 0.25151664
0.47255069 -0.04274562 0.23844436
0.52824014 0.0084580444 0.20686109
0.48961088 0.025456378 0.21624656
0.54239869 0.0014584825 0.24669512
0.53958011 0.0064191273 0.24747866
0.51989847 0.017090034 0.20468579
0.4990575 0.029646382 0.23518731
0.51973277 0.018781884 0.22480318
0.50527787 0.020124581 0.2490094
0.48547757 0.021154109 0.2027248
0.49665385 -0.054286845 0.25461179
0.54981875 -0.01925567 0.24868213
0.48253927 -0.052349649 0.2290469
0.47950187 0.018949641 0.25057694
0.45587987 -0.021131454 0.25039506
0.4857958 0.016531469 0.22902812
0.51118624 -0.059438873 0.19468416
0.47279844 0.0019779801 0.22813568
0.47132003 0.001922815 0.20632555
0.46710771 -0.0026189387 0.21404728
0.50916505 0.022109507 0.24248125
0.4966872 0.0328939 0.23532954
0.51197863 0.02109067 0.24676555
0.49795008 -0.060104821 0.23138271
0.50401914 0.029048566 0.24830846
0.45923522 -0.013791453 0.25163025
0.47964162 -0.050766714 0.21556652
0.51336616 0.017002748 0.22212479
0.46259394 -0.038088545 0.25096753
0.49030805 -0.056680623 0.23876771
0.46491212 -0.011564704 0.23690344
0.5488202 -0.010288236 0.25171283
0.53641963 -0.012267115 0.24335568
0.49479505 0.019915273 0.23102707
0.45928091 -0.03124861 0.25152677
0.4966498 -0.059055332 0.23252033
0.45877185 0.011675858 0.25043488
0.47279128 -0.044363569 0.20713137
0.48464391 0.024994204 0.22136039
0.50134063 0.041548006 0.22887588
0.52719575 0.011678143 0.23982118
0.46878058 -0.039901476 0.20251322
0.47963849 0.025762778 0.24902789
0.48919335 -0.056501534 0.22129408
0.51237935 0.011598283 0.19427998
0.52649903 0.012538448 0.2278945
0.50703746 0.023004113 0.24634747
0.46496105 -0.0080715604 0.24647655
0.54605114 -0.032607939 0.24960679
0.51377594 -0.053108264 0.25385207
0.47319484 -0.041915461 0.21978424
0.51071638 0.025832403 0.24658301
0.54100496 -0.035351198 0.25130868
0.54006219 0.00098764 0.25055811
0.45870936 0.0094160978 0.25008759
0.53602582 -0.0091850748 0.23323159
0.47897533 -0.051719882 0.24162543
0.52255279 0.017531898 0.23902602
0.52069736 -0.061564472 0.25187689
0.510934 0.025008157 0.24498089
0.51854587 0.017416146 0.19336647
0.5044204 -0.052039746 0.25502843
0.4720749 -0.046208318 0.20132241
0.47106281 -0.039660428 0.22175497
0.47977036 -0.053312071 0.20284861
0.53266549 -0.0026033758 0.23492894
0.53463334 -0.0063140932 0.20751955
0.51396579 0.022036301 0.22816767
0.49103546 0.022439566 0.24783847
0.49873751 -0.057439789 0.25340474
0.53193134 0.0075931917 0.24883057
0.49636641 -0.060903706 0.25297338
0.52676076 -0.050053567 0.2378311
0.53606153 -0.0076632588 0.24791519
0.53216219 0.0026859937 0.24262461
0.51931238 -0.060585026 0.19832174
0.5010581 0.016274 0.20369074
0.50069803 0.026249798 0.23673107
0.53021026 0.0051327716 0.22019958
0.47128803 -0.042003974 0.24104346
0.5104332 -0.064247593 0.25551409
0.53420782 -0.0019776875 0.21455374
0.53699559 -0.046545342 0.25022039
0.46211398 -0.040034637 0.24927324
0.46647456 0.001309072 0.25030616
0.50855672 0.027612559 0.2523959
0.49287203 0.019459439 0.2278271
0.54045981 0.0055559305 0.24658206
0.54601175 -0.032897986 0.24944678
0.52664667 0.016230378 0.24397375
0.46858534 -0.03685493 0.24484298
0.4852618 -0.045174014 0.26385584
0.45356897 -0.0066575874 0.25035658
0.5073024 0.018894535 0.2201535
0.53812897 0.0037592319 0.24955375
0.53487569 -0.01667933 0.22166568
0.47160172 -0.043088242 0.19449402
0.4999941 0.040961768 0.22856849
0.52059144 -0.05740251 0.24789344
0.50130612 0.019389277 0.23418333
0.48907548 -0.057042763 0.22679839
0.49573603 0.024971897 0.24352989
0.53181535 0.00023843737 0.2379235
0.49485716 -0.059951704 0.20076361
0.46201748 -0.035498343 0.25256941
0.52033323 0.016599601 0.20591165
0.5369181 0.0042556785 0.25446424
0.4661611 -0.02920334 0.24305801
0.48872095 0.023433441 0.25066417
0.54588306 -0.025988122 0.24997541
0.48890829 0.01789212 0.22356638
0.50188035 -0.059933551 0.25159356
0.52398914 -0.059211347 0.25272682
0.52211612 -0.058117036 0.25025925
0.46572125 -0.0070612128 0.19823803
0.53448468 -0.0035251658 0.24470532
0.49916726 -0.058965851 0.24539213
0.53285164 -0.046357874 0.23786388
0.50370604 0.025916044 0.2160375
0.5346064 0.0082392935 0.24819551
0.53866035 0.0010551214 0.25439268
0.4871062 -0.05521166 0.24044444
0.48741683 -0.055846937 0.21525458
0.51368064 -0.060446858 0.19937541
0.47304538 0.0067730509 0.24339588
0.48826122 -0.058862593 0.20160195
0.50781274 0.024988314 0.23651791
0.48931152 0.022693222 0.20185916
0.46641648 -0.0050509027 0.23899113
0.47011325 -0.039635267 0.23233698
0.53159183 0.0028329168 0.24107233
0.51949281 0.014397528 0.22376551
0.4735159 -0.047407471 0.22016965
0.49119055 0.023281671 0.24953033
0.48283556 -0.04569336 0.26580718
0.53842372 0.0022258498 0.25044221
0.53576684 0.0081812665 0.24891499
0.49894792 -0.053146664 0.25533229
0.52539521 -0.043350082 0.25375846
0.46318528 -0.014390959 0.248355
0.48688307 -0.058499508 0.19940586
0.52608693 0.014055738 0.23962584
0.50289416 -0.061990973 0.219043
0.47247776 -0.044570159 0.22847636
0.5027405 0.025297772 0.21641625
0.49320859 0.032442424 0.23839639
0.47469947 -0.04670858 0.22402991
0.48595977 0.029188216 0.25089145
0.49704441 -0.060102869 0.21521038
0.51109856 -0.062258724 0.25518557
0.54443783 -0.0028582213 0.24849191
0.51871806 -0.05480621 0.21525997
0.54407495 -0.0052950759 0.25171959
0.50004268 -0.061501376 0.25016931
0.50576651 -0.062039245 0.20892426
0.5476172 -0.024702292 0.25002712
0.46903643 -0.045874361 0.2509419
0.49949813 0.018169496 0.2167808
0.5038147 0.018734699 0.22774911
0.47059888 -0.044862822 0.24960117
0.46507391 -0.022778193 0.23747346
0.49344018 0.020501923 0.21702234
0.5261957 0.018269239 0.24664992
0.47805211 -0.048663627 0.22303495
0.48459879 -0.051078759 0.21393842
0.54209471 -0.034127247 0.25159445
0.47349405 -0.04268796 0.22144096
0.53490621 -0.045720056 0.23783305
0.53117102 0.001718446 0.23325297
0.4980866 0.024492016 0.24411176
0.53319687 0.0073621771 0.24701132
0.52097237 0.017197758 0.22159207
0.51425266 0.020938991 0.21803309
0.45692956 -0.033461772 0.24998355
0.4625791 -0.026005497 0.2456584
0.49496612 0.028764341 0.24729495
0.52957863 0.0096962564 0.23963925
0.46871099 -0.041605949 0.2218688
0.53598607 0.0037396667 0.25176102
0.52006882 0.013959615 0.22508183
0.5056932 0.027346766 0.24659815
0.51669312 0.020797299 0.23548979
0.52179497 0.015784627 0.22058462
0.49710354 -0.058388334 0.24334855
0.51274914 0.021240804 0.21744768
0.46900085 -0.038365003 0.24089088
0.51193589 0.020971663 0.19650003
0.47990686 -0.049343813 0.22691396
0.47123042 -0.039344594 0.21892619
0.49137875 -0.058348078 0.25076523
0.47436792 -0.04745584 0.22330019
0.5112586 -0.059780806 0.23309492
0.52637529 0.0079433713 0.22890325
0.52845079 -0.038149375 0.25382283
0.49745381 0.02520033 0.24264085
0.5162974 0.016869051 0.21477419
0.51300186 -0.060045268 0.24653356
0.49933952 -0.059410788 0.25198191
0.49715677 0.027433889 0.2434281
0.47284538 -0.043754015 0.23261607
0.5387035 0.0001080376 0.25172395
0.50063562 0.026652204 0.2379505
0.46545371 -0.034795597 0.20183615
0.48896092 0.020298777 0.24740967
0.52581489 -0.04164952 0.25388503
0.46518102 -0.014148483 0.23397221
0.45317182 -0.0063272729 0.25038689
0.5086571 0.024798781 0.22599888
0.52857703 0.018729268 0.24841475
0.47771603 -0.048775453 0.22548001
0.53292704 0.0017664804 0.2152746
0.46195841 -0.013187073 0.24960546
0.53246307 0.0090286732 0.24709114
0.46150953 -0.030728044 0.25031331
0.52987391 0.0082977423 0.24011992
0.47693813 -0.048615549 0.20486802
0.46780229 0.016893335 0.24830668
0.52361459 0.015554502 0.24075723
0.46920022 -0.0015936913 0.23121139
0.49947181 0.024648359 0.22365887
0.52823448 0.0057925377 0.20218249
0.46796072 0.02157817 0.24914129
0.46152225 -0.032805473 0.25293657
0.52499408 0.012262998 0.2240894
0.51125914 0.012855903 0.19392863
0.47995186 0.013251589 0.234473
0.53515685 -0.0078701712 0.23373498
0.50513214 -0.060800966 0.24914023
0.52287424 0.012228093 0.19998871
0.4988296 -0.058409985 0.25131893
0.49969786 0.02946417 0.25035486
0.47409558 -0.052133035 0.25188252
0.5202443 0.018535772 0.23166712
0.49561846 0.022370648 0.24785003
0.52121031 -0.048956528 0.25414175
0.49877313 0.024642833 0.24371703
0.4918313 0.019929031 0.2185964
0.52854013 0.0083450936 0.22133821
0.52388507 0.013759398 0.22102749
0.46490398 -0.0076592551 0.24550727
0.5372265 0.00081510836 0.25344479
0.50383633 0.025281774 0.23459712
0.54466683 -0.029937098 0.24932805
0.50615227 -0.054202866 0.25436282
0.46464333 -0.011651834 0.23820814
0.52530301 0.014057658 0.23785177
0.51771897 -0.051744148 0.25427005
0.49823809 -0.060476448 0.25031
0.4969919 0.041985087 0.22663291
0.46066788 -0.036955647 0.25076842
0.5191344 -0.055970091 0.21954641
0.50065178 0.02537632 0.23566341
0.4882513 -0.05754026 0.19436161
0.49628791 -0.055402379 0.25359178
0.47754452 -0.048307654 0.22437896
0.46565145 -0.036415007 0.2053709
0.52371305 0.012811109 0.20493224
0.51645643 0.018596562 0.21113408
0.46816963 0.00021639829 0.19168164
0.47319096 0.014511356 0.25053555
0.51934707 0.013492325 0.22570118
0.48534137 -0.044588182 0.26417905
0.50986946 0.021989368 0.24086663
0.46812463 -0.0017791684 0.242752
0.47945639 0.018614609 0.25039211
0.49568906 -0.056511391 0.25380549
0.49768895 0.042138208 0.22623214
0.49115703 0.023713652 0.20360428
0.53690338 -0.01682644 0.25108364
0.46123102 -0.0073222434 0.25223911
0.50891608 0.023722507 0.22263552
0.52403069 -0.05759047 0.25163603
0.50507319 0.023427613 0.20274861
0.47181737 0.0010280196 0.22548202
0.49954498 -0.061340876 0.22769435
0.51964468 0.018670114 0.24633929
0.49735624 0.02378846 0.24616507
0.47460178 -0.047099337 0.24426693
0.47268802 -0.042773928 0.22821333
0.49545655 0.023260117 0.24771827
0.5251593 0.012500064 0.21766718
0.5036599 0.026617082 0.24225843
0.53937197 -0.027719164 0.25291145
0.49841705 0.043504018 0.22501528
0.4658632 -0.033812374 0.23158178
0.48230413 -0.055837974 0.21489699
0.5185861 0.018422062 0.21985886
0.5023874 -0.052035086 0.25393909
0.52635366 0.017501667 0.25179136
0.50837862 0.022712147 0.24596468
0.53529418 -0.0067338995 0.20621084
0.45287755 -0.011036904 0.25216925
0.54108518 0.0028203786 0.24465254
0.47850835 -0.049668085 0.23027702
0.50150621 0.044310529 0.22442837
0.47252336 -0.044387151 0.22457357
0.48596886 -0.053875584 0.23495315
0.46124694 -0.014290144 0.25047827
0.53055161 0.0031073955 0.19873793
0.49162683 -0.056930304 0.22435419
0.46394199 -0.029239587 0.2489495
0.51551837 0.021362619 0.22850497
0.52021641 0.020484453 0.22936478
0.50203443 0.018277984 0.22075506
0.45301238 -0.021649927 0.24847108
0.532215 0.00038656581 0.23553939
0.47701919 0.011098923 0.24062103
0.53141791 0.0066095591 0.2473032
0.51515949 0.016277187 0.22565638
0.48527211 -0.052132864 0.2121682
0.46447068 -0.019405199 0.24351515
0.4968456 0.023678727 0.19444913
0.51170731 0.024560416 0.24100374
0.5168137 -0.049269505 0.25425577
0.4772113 0.011538642 0.24329668
0.51702625 0.018947711 0.20315889
0.49913144 0.034179963 0.23342834
0.5355224 -0.0005581525 0.21630807
0.50234532 -0.060733631 0.2515665
0.5258007 0.012543435 0.23293935
0.53364098 -0.0036486157 0.23603594
0.47720313 -0.047803272 0.22068626
0.49855316 0.024664702 0.22182302
0.50114232 0.030104363 0.23398866
0.46865249 -0.042846639 0.22092164
0.51294774 0.023233686 0.23392068
0.48074761 -0.046771772 0.25980878
0.48702008 -0.055079017 0.23657209
0.52684611 0.012975438 0.24600719
0.49411982 -0.059323769 0.1968431
0.49843231 -0.060421221 0.21355113
0.51991719 0.020804854 0.25076959
0.48971307 0.024384223 0.20603131
0.5065062 0.020497208 0.23515405
0.52080625 -0.034026705 0.23786116
0.47788805 0.0093984706 0.21806367
0.47083801 0.00047282275 0.22182362
0.53267235 -0.0035004937 0.23427048
0.50911981 0.021776389 0.24229749
0.46449918 -0.010640091 0.24386281
0.47680742 -0.047359001 0.22056215
0.53596795 -0.0051686577 0.21449883
0.48549649 -0.053917669 0.21097152
0.50808209 0.014894295 0.19903934
0.52022696 -0.05890106 0.19426648
0.53049886 0.0090229483 0.20984623
0.5114553 0.018086014 0.21968077
0.53162783 0.00078536704 0.20301914
0.48138261 0.02737841 0.24980368
0.45565373 -0.016588153 0.25362673
0.45427087 -0.01500882 0.25269493
0.49832997 -0.061149448 0.21152946
0.48727253 -0.053037282 0.21393009
0.48436961 -0.054133072 0.25255433
0.47367814 -0.042380314 0.21861054
0.53060657 0.0032809644 0.20024969
0.48167685 0.027696127 0.25019631
0.52728951 0.01215455 0.23886906
0.46448356 -0.041995008 0.25287718
0.51442146 0.022065653 0.22572601
0.46383363 0.016541289 0.24997602
0.47612244 -0.052037023 0.25325158
0.52116668 0.01759116 0.22875747
0.5339275 -0.047357619 0.24061127
0.46443948 -0.0049703596 0.20005174
0.47359285 -0.044688538 0.20488895
0.51829702 -0.059978932 0.19708279
0.53641301 -0.011402038 0.2439906
0.5358718 0.0077092513 0.24733914
0.46135724 -0.011527075 0.2496254
0.53042924 0.0073076114 0.21739203
0.52344775 0.016989008 0.24849692
0.49279061 -0.059372596 0.25094804
0.47428885 -0.045493688 0.23147647
0.53250325 0.0047877156 0.24842151
0.52652448 0.010988005 0.22300217
0.53849578 -0.028390726 0.25423747
0.46257547 0.00025740347 0.25255439
0.53335029 0.004950841 0.25035134
0.5213452 -0.057236936 0.2474601
0.46152228 -0.011279458 0.25095099
0.49545735 0.047001068 0.22142394
0.48215792 0.015678318 0.23626488
0.47716203 0.025052352 0.24852653
0.47201169 0.008454646 0.24734464
0.49470401 -0.059452135 0.25017881
0.47368601 -0.046452526 0.20336229
0.50552821 -0.060914725 0.24522385
0.46399578 -0.031343114 0.2294755
0.48049223 0.024427442 0.24579298
0.4647108 -0.0081801154 0.24776043
0.50329137 -0.060231633 0.19477847
0.51485938 0.02777244 0.24601731
0.5176515 0.024153754 0.25202343
0.51256341 -0.05918337 0.24360365
0.52015835 -0.054078143 0.21509595
0.49613634 -0.0589852 0.23778987
0.49309325 -0.057766844 0.22937348
0.49600419 0.026635146 0.24221906
0.53342938 0.0040174504 0.24835078
0.47989002 0.012451536 0.23525631
0.47045696 3.160107e-05 0.22296005
0.51541376 0.020171043 0.19642444
0.49799705 0.02339245 0.24742581
0.53072804 -0.040043414 0.25364897
0.5285024 -0.048346724 0.23722702
0.51902521 -0.060028452 0.25030446
0.515001 0.02219151 0.24373403
0.53650272 -0.047037318 0.24184082
0.46105319 -0.0086317435 0.2515167
0.47784099 0.028938795 0.25040579
0.51885742 0.02097518 0.22152556
0.45205155 -0.0073241633 0.25040311
0.4743287 -0.046172056 0.20391473
0.50913274 0.02430683 0.2285997
0.54062778 -0.045747448 0.24813209
0.54875499 -0.014089696 0.25170958
0.47584856 0.0081166895 0.21938759
0.52822089 -0.052561812 0.24395971
0.45351744 -0.01346698 0.25207379
0.49584892 0.021284655 0.24386097
0.52977407 -0.037421077 0.25371748
0.47270751 -0.045115262 0.23361403
0.4737666 0.0046438151 0.21441746
0.48338315 0.022611951 0.23923631
0.49622414 0.024360348 0.19732638
0.47442761 0.011082119 0.24668144
0.49851719 -0.058932368 0.24437536
0.54793221 -0.024679458 0.24990819
0.4738152 0.0050018216 0.21461496
0.5123741 0.020939322 0.19671172
0.47985137 -0.054390814 0.24683879
0.50889379 0.020933647 0.2494684
0.46183637 -0.025114099 0.24666122
0.50383657 0.022053093 0.24469391
0.53228021 0.0072370167 0.21219385
0.46856415 -0.037122734 0.2428038
0.46496487 -0.024441617 0.24521762
0.53693134 0.0025191142 0.25318968
0.492926 0.019521262 0.23406419
0.45177779 -0.015851449 0.25073296
0.52288234 -0.057300385 0.24938953
0.46775439 -0.037218574 0.24448889
0.52051198 0.018226106 0.24512368
0.50537348 0.025445111 0.24860023
0.51249301 0.021117503 0.21807386
0.49637407 0.02426428 0.24499808
0.50136369 0.042449307 0.22826934
0.50701809 0.023788307 0.21353909
0.54261482 -0.0036818609 0.25255272
0.52988011 0.006534378 0.22798879
0.53454113 -0.0050925869 0.19889267
0.46736684 0.0026855276 0.25076807
0.47991371 0.024019307 0.20455706
0.46940854 -0.048832454 0.25337997
0.47756931 -0.049712744 0.21669757
0.4665435 -0.037145674 0.24750847
0.46736664 -0.034802947 0.2328656
0.54350966 -0.014269806 0.25280797
0.48595899 0.02687203 0.24647331
0.47739545 -0.052505527 0.25150859
0.53003222 0.0068064411 0.22962548
0.5458467 -0.028117076 0.2499388
0.51227242 0.024305481 0.24499701
0.53336799 0.0086219003 0.24770628
0.50983417 0.024448261 0.23585172
0.48767823 -0.056707837 0.19533059
0.48850963 0.019602593 0.24717605
0.52904576 0.0099089602 0.20971908
0.54538035 -0.031130213 0.24954505
0.47585195 -0.046315037 0.25468469
0.51814908 -0.056467947 0.23813309
0.54304463 0.00043083017 0.24709794
0.47566763 0.014359151 0.24939847
0.52937353 0.0089196069 0.23760167
0.51329172 -0.059025686 0.23426947
0.48427698 -0.04553543 0.26405105
0.48728234 0.024435909 0.23997016
0.47697258 0.0071360776 0.23324977
0.52032286 0.019651866 0.24374621
0.46161947 0.006995664 0.2498654
0.50840455 0.021529419 0.23871541
0.4870289 -0.054733835 0.23633979
0.49338296 0.025239451 0.2384259
0.51936454 -0.055520147 0.23953129
0.48933706 0.028039154 0.24779637
0.5043025 0.023091262 0.20208609
0.52879357 -0.052234992 0.24477126
0.5330286 -0.039866935 0.25366169
0.5212822 0.018193182 0.24686748
0.53434998 -0.0074387095 0.19570425
0.49859172 -0.060161728 0.25035253
0.49861702 0.020785598 0.2399009
0.45752585 -0.030262182 0.25131145
0.540923 0.0024653699 0.24793631
0.46689871 -0.038234007 0.24807632
0.48117781 0.014480097 0.23345965
0.54136854 -0.015813613 0.25423124
0.50438219 -0.060665246 0.24555095
0.460105 -0.016063228 0.2511245
0.49372697 -0.058436226 0.24355677
0.49994919 0.02429546 0.23177975
0.53470582 0.0069875196 0.25393724
0.4977715 0.03628283 0.23389429
0.46193761 -0.030067666 0.25053492
0.5003854 0.027533632 0.2360155
0.53347927 -0.0029219529 0.23648533
0.46968615 -0.044221513 0.2015048
0.52819121 -0.055942848 0.25385368
0.53631777 0.003849163 0.21078286
0.50375748 0.026506333 0.23652102
0.47576463 -0.047769342 0.23656785
0.47404465 0.0088472711 0.24423756
0.51374173 0.022717392 0.23125817
0.5058918 0.023282237 0.20443545
0.49075404 0.026315568 0.23916115
0.50797641 0.024140691 0.24009638
0.50613195 0.017450757 0.19181545
0.53921938 0.0013624307 0.24939817
0.52587974 0.011173269 0.22249168
0.50056458 -0.061051033 0.22196914
0.49674839 0.044523235 0.22378351
0.53713989 0.0042683887 0.24964154
0.52317959 -0.033441871 0.24227674
0.4895739 -0.057555113 0.24857889
0.51347005 0.022415521 0.23224345
0.46524742 -0.0042286422 0.24994037
0.47720054 0.009021149 0.22310156
0.4548887 -0.016677713 0.25314942
0.4716416 -0.049144857 0.25198784
0.47383496 -0.042715609 0.21112202
0.46774575 -0.037555531 0.24471566
0.54058689 0.0064921086 0.24709854
0.49487168 0.02489052 0.20511547
0.52139646 0.019281598 0.25044048
0.49493247 -0.058811255 0.23054869
0.48592639 -0.056295816 0.24676427
0.49125573 -0.057060182 0.24115962
0.53101486 0.0050875656 0.23430152
0.47742015 -0.048766963 0.22887409
0.48241252 0.015713017 0.23244533
0.51894689 -0.059729811 0.19536492
0.5226866 -0.052794665 0.23757406
0.52393603 -0.059387729 0.1955432
0.51895565 0.018916305 0.2258388
0.47878495 -0.047955189 0.25493801
0.52381366 -0.046355709 0.25339827
0.47273856 0.0033173671 0.21030992
0.45151231 -0.014658577 0.25147066
0.52626681 0.0097756777 0.20677286
0.5221073 -0.056743532 0.24680613
0.50260723 0.020956231 0.24205549
0.50744712 0.018286886 0.18942322
0.54086906 -0.017622493 0.25262773
0.47756585 0.010245116 0.23862617
0.49348068 0.028743528 0.23945424
0.52669203 0.013031639 0.24190348
0.4646697 -0.0059007597 0.24916577
0.52761477 0.012294484 0.24320957
0.48554996 -0.055873185 0.2466462
0.4693886 0.006815874 0.24869734
0.50981593 0.029559692 0.247988
0.48003772 -0.054145604 0.20455937
0.48040393 0.012345576 0.22875287
0.52232724 0.016718194 0.23550762
0.4861232 0.016210198 0.22869442
0.46360335 -0.030261591 0.24971439
0.46601257 0.022380315 0.24868616
0.49413732 0.027974805 0.24491258
0.48605964 0.018058976 0.24478033
0.49182588 -0.05689073 0.23443331
0.47698474 0.0088478522 0.21437594
0.54262751 -0.028928589 0.25080213
0.47964486 -0.049543083 0.22459611
0.51116496 -0.059841227 0.23699671
0.5295437 0.0054318439 0.20532824
0.45636681 -0.032993708 0.25002652
0.4881075 0.021895589 0.24874192
0.46624705 -0.039556593 0.22205693
0.49860081 0.024800189 0.20163675
0.54682827 -0.027756836 0.24974424
0.49236518 0.028925771 0.24737015
0.47204536 -0.044053175 0.25268948
0.47436672 0.0060385489 0.21625812
0.52535939 -0.055737104 0.24856462
0.54699177 -0.021037163 0.25003383
0.4913854 -0.058173839 0.24948421
0.49262542 -0.057355758 0.21146843
0.53653771 -0.014314559 0.24461627
0.47847602 0.0096322875 0.22542474
0.5170607 0.020819267 0.24653657
0.47772947 -0.051841196 0.20657308
0.50913829 0.021450095 0.19805764
0.5126428 -0.059188701 0.23975152
0.53588831 0.001674286 0.25065136
0.52654767 0.011182497 0.19171266
0.50554955 0.03156852 0.23367411
0.46042252 -0.037220612 0.25044096
0.50191021 -0.054928802 0.25425515
0.5146926 -0.058559619 0.23463312
0.54560184 -0.011491782 0.25261804
0.47864521 -0.0521513 0.19746809
0.53954214 -0.010613404 0.25437936
0.47207266 -0.045433447 0.22085083
0.50356692 0.020140672 0.23742084
0.53924263 -0.00031781627 0.25504646
0.4854781 -0.054297667 0.23162177
0.52955389 0.0090999426 0.21530773
0.53364062 -0.005036376 0.19438776
0.53745461 0.00062535465 0.25342739
0.47739416 -0.051854115 0.25003657
0.49906352 0.024015499 0.24528144
0.5009675 0.021602266 0.24860883
0.485504 -0.050505124 0.21484835
0.47467411 -0.046245385 0.22571227
0.53219062 0.0038755308 0.24622609
0.51094806 -0.060529642 0.1967824
0.47553393 0.025065336 0.25036925
0.53320032 0.0098570734 0.24852912
0.4849672 0.023375889 0.20544437
0.51110369 -0.052332517 0.25434238
0.46463573 -0.013333772 0.20109835
0.5344584 -0.048008837 0.24208818
0.46521148 -0.026078044 0.2453616
0.53544962 -0.010661465 0.2413111
0.52289301 0.016191415 0.24219353
0.51645094 0.021493502 0.24276705
0.52219051 -0.053930838 0.21432871
0.49737358 -0.058343653 0.24447685
0.4800756 -0.05203354 0.19550191
0.54443824 -0.0041951071 0.25083542
0.49114048 0.026287049 0.23934782
0.53087002 -0.040681522 0.25325432
0.47018188 -0.039335862 0.23083542
0.52929306 0.0075067561 0.23109917
0.4636623 -0.011967449 0.20234086
0.47109675 0.0026903248 0.23675372
0.52564138 0.012371388 0.23272672
0.52113563 0.014039593 0.22457068
0.50619876 0.025491904 0.23737617
0.5440495 -0.031802956 0.2496966
0.48779511 -0.059970114 0.25348929
0.4920553 -0.05759101 0.21314287
0.50606167 0.023465674 0.20466214
0.52369976 0.01506815 0.21896686
0.47438702 -0.045485772 0.23018096
0.50728893 0.02688168 0.24575847
0.47708666 -0.048515651 0.23394634
0.50177532 0.027838953 0.23521639
0.53560066 -0.010498411 0.24151261
0.49638417 -0.059739418 0.25029612
0.50574893 0.017534144 0.19192478
0.49205294 -0.058007281 0.25068846
0.49572128 0.035528384 0.23400049
0.50696236 0.025813615 0.23937818
0.49670383 0.024654115 0.20186342
0.53936476 0.0019131445 0.24358112
0.53627753 -0.0012509223 0.25005573
0.49548534 -0.05857962 0.23652716
0.5007695 -0.05398003 0.25434223
0.54120713 -0.014540263 0.25373018
0.4570528 -0.03332869 0.25014803
0.54203063 -0.0066186008 0.25347382
0.53226501 0.005858175 0.2490835
0.46046519 -0.031050378 0.25230965
0.50580955 0.023494104 0.19371463
0.48024681 0.01304397 0.23297772
0.53547287 -0.0049145897 0.21306613
0.53426504 -0.0050781965 0.20146316
0.49577275 0.031287272 0.2509447
0.508021 0.027476618 0.2520076
0.50260913 -0.062818982 0.20952274
0.52478516 -0.058837976 0.19481455
0.52077836 0.018942891 0.21325576
0.46395993 -0.022603564 0.21988402
0.50984901 0.019280532 0.19815911
0.49609426 -0.058635719 0.24649353
0.50333816 0.016774874 0.20237982
0.45526323 -0.033867583 0.25014248
0.4631739 -0.023862027 0.25130355
0.52375388 0.014389947 0.23049372
0.50250119 0.029200649 0.2340032
0.49494559 0.02995473 0.24951658
0.4975543 -0.059151318 0.25130311
0.50851351 -0.061470978 0.25195292
0.54204243 -0.026369255 0.25260735
0.53043866 0.007676465 0.23590258
0.50105852 0.024978191 0.24889106
0.53852004 -0.046710059 0.24203151
0.4569242 -0.025800895 0.25292662
0.49528611 0.03198681 0.23653182
0.49675131 0.024006126 0.1959942
0.46785408 -0.039378691 0.20383897
0.48398542 -0.059140772 0.25457665
0.46453628 -0.03922721 0.25229621
0.51440585 0.021583712 0.2199454
0.52115649 0.020359872 0.25110731
0.46830735 -0.0003901599 0.23854302
0.50184238 -0.061123732 0.19981292
0.52430964 0.014107927 0.22110543
0.46115842 -0.037995394 0.25038397
0.50245881 0.018655645 0.22080608
0.50626493 0.023459626 0.21289168
0.50427955 0.020638507 0.24909802
0.46864077 -0.03726184 0.24031527
0.51052094 0.014030362 0.19346826
0.53760099 -0.014610996 0.25173962
0.49713755 -0.061712563 0.25002137
0.50054932 0.02648586 0.23913547
0.53370279 0.00088766753 0.22150955
0.52073085 -0.060256813 0.25099689
0.49829429 0.03005599 0.25139129
0.52183777 0.0098622777 0.22958198
0.47627872 0.0084995087 0.21943931
0.45543188 -0.015974464 0.25260627
0.5295521 0.0071138414 0.22824019
0.53400892 0.0087486999 0.25350839
0.5347544 0.00117559 0.24831972
0.50046271 0.02397475 0.24343356
0.46361449 -0.0007604775 0.25274086
0.50237525 0.025441706 0.21497208
0.52806646 0.010354361 0.23254156
0.54963297 -0.012072728 0.25127116
0.49630278 -0.058158893 0.23971909
0.47708982 0.020878611 0.24405314
0.5143218 -0.059143789 0.25046527
0.5039534 -0.06247272 0.25457472
0.506598 0.023819307 0.2133362
0.49901831 -0.054156069 0.25462514
0.52847326 0.0099699749 0.22706001
0.51173264 -0.059234999 0.21469611
0.52852386 0.010017043 0.24066317
0.46774465 0.011928419 0.25001493
0.53326505 0.0057524405 0.21465574
0.5331099 -0.0020187683 0.21122503
0.46379709 -0.016801765 0.23791787
0.48160654 0.027192168 0.24978657
0.48148513 -0.053441375 0.25294748
0.54515845 -0.0088997371 0.25236651
0.46140987 -0.034361128 0.25172803
0.50573593 0.016443269 0.20411713
0.49349651 0.019240348 0.25083363
0.49499041 0.025254901 0.22440594
0.52321059 0.013148133 0.20220266
0.52948624 0.0079295225 0.20849492
0.50821036 0.024958968 0.23670998
0.50355947 -0.058962103 0.23840766
0.51789886 -0.060112897 0.25084418
0.49253675 0.026689088 0.24310333
0.50020659 -0.061175041 0.20309721
0.53541166 0.0043509719 0.21211374
0.51538545 0.021416267 0.24316932
0.48781136 0.017712586 0.22889741
0.50589556 0.021542668 0.24351481
0.45535368 -0.030501928 0.25132102
0.537099 -0.019500833 0.2519232
0.50592029 0.039286591 0.23222734
0.51116401 0.026033374 0.25127771
0.5168342 -0.056158241 0.21647555
0.52092284 -0.054183543 0.23797719
0.49297699 -0.061148074 0.2496307
0.53009558 0.0037840521 0.19492985
0.50675714 0.01944699 0.23191981
0.45410779 -0.023044949 0.24803028
0.50173068 -0.059725314 0.24988922
0.50356489 0.01654616 0.19988613
0.53393263 -0.0016350452 0.24444945
0.52621466 0.0086521553 0.20456147
0.4512085 -0.016836055 0.24970025
0.48871881 0.026427969 0.24221253
0.45852718 -0.030621715 0.25158432
0.49469411 0.021523202 0.19222665
0.53697753 -0.012973919 0.24584213
0.47320181 -0.051598798 0.25258473
0.49931023 0.047695812 0.21930911
0.49881747 0.019021977 0.19009559
0.54229897 -0.01293649 0.25550073
0.4682903 -0.034795526 0.2209993
0.4638209 -0.018231962 0.23952582
0.5433737 -0.012918219 0.25324553
0.54294151 -0.028905829 0.25068358
0.51843482 0.020420272 0.24021009
0.48587373 0.014881786 0.22301292
0.52548248 -0.039570678 0.25388652
0.51851141 0.020433612 0.23484462
0.51712835 -0.06093413 0.25171876
0.47392246 -0.044479415 0.22753824
0.53061098 0.0044590244 0.20924631
0.47294205 0.0021658591 0.23067839
0.51340526 -0.059130348 0.24575464
0.51175338 -0.05311697 0.25411263
0.52031738 -0.061810482 0.25220296
0.46657154 -0.035055708 0.24738675
0.45343587 -0.018614767 0.25093883
0.47293293 0.0079796296 0.24542248
0.48481604 -0.056625575 0.25255492
0.52901101 0.0066625732 0.22097589
0.50041717 0.023720821 0.24489509
0.51723486 -0.057958551 0.24333403
0.53840077 -0.013322543 0.25312048
0.45236987 -0.0099371606 0.25135392
0.48134309 0.021259846 0.20328873
0.53694338 -0.0031624255 0.21650386
0.45833328 -0.029750502 0.25212312
0.53647345 -0.022018131 0.25108317
0.47948492 -0.050181292 0.23911424
0.50553441 0.027505565 0.24933827
0.49656394 0.020421645 0.25000793
0.46560615 -0.0019490892 0.20015508
0.48840335 0.016872672 0.21320301
0.49991816 -0.062070537 0.25476789
0.52622575 0.021283217 0.24971703
0.53015673 0.0078031491 0.24126104
0.48177752 0.022356853 0.24089324
0.5130651 0.022230715 0.24215491
0.50721788 0.023451319 0.24536392
0.5203836 0.02041691 0.25073397
0.52815837 -0.057224941 0.25471649
0.5302856 0.0083734533 0.24716769
0.45980769 -0.036091186 0.24958993
0.48259139 -0.055894401 0.21608479
0.49883488 0.019701375 0.18963838
0.47244003 -0.047966991 0.25086519
0.49895316 -0.059660926 0.25231346
0.5215171 0.017997803 0.24684954
0.48576364 0.020398747 0.24881883
0.53806925 0.0015150328 0.21412337
0.47123262 0.0013286498 0.21968947
0.52042973 0.014193259 0.22477216
0.53232002 -0.00043772094 0.20248851
0.53495097 -0.0057581821 0.23924544
0.51301962 0.019092917 0.20790783
0.54358685 -0.036387075 0.25083354
0.49382806 0.040234938 0.2291504
0.5267148 -0.044195708 0.25248951
0.50969422 -0.063756146 0.25550616
0.54098159 -0.033549801 0.25117105
0.46735948 -0.038579889 0.20479648
0.46817139 -0.04218863 0.22114868
0.52356839 0.0085544195 0.22970439
0.5480842 -0.027665796 0.24927005
0.45598078 -0.03125909 0.25109926
0.49592721 0.02205243 0.24920191
0.50239044 0.024336489 0.20603974
0.46326816 -0.014869789 0.2007397
0.52643055 0.017175794 0.24464059
0.53276199 -0.0024236734 0.20126033
0.49395445 0.033791833 0.23590894
0.51316071 0.025545742 0.25063694
0.50165904 0.024093084 0.20411284
0.49145523 0.024720812 0.20857032
0.52294505 0.015155631 0.21166635
0.47135904 -0.042420961 0.2310982
0.54506713 -0.0058058188 0.25163153
0.51452631 0.01786519 0.21591157
0.534998 0.002499192 0.21606493
0.53381163 0.0045671151 0.25031611
0.46791199 -0.035395216 0.23939267
0.47663248 -0.047619555 0.22575071
0.5117017 0.024416093 0.24901894
0.48757312 -0.058683112 0.20050484
0.5059461 0.024526648 0.21486196
0.49253303 0.026007518 0.23989002
0.45962945 -0.01344062 0.25167763
0.52613181 -0.05459765 0.24747857
0.49666396 0.028490257 0.24665113
0.49132097 0.018330317 0.21037142
0.53848439 0.0047898004 0.24445966
0.53593075 -0.0085068559 0.20118208
0.5081017 0.019668296 0.19664323
0.47660151 0.0084881028 0.2379629
0.4893944 0.019113336 0.2427717
0.51377362 0.026207551 0.25145483
0.49818432 -0.060379785 0.21235636
0.53383815 -0.0029759512 0.20820178
0.46566325 -0.028631233 0.23970257
0.53590447 -0.0087997606 0.24022138
0.4569442 -0.02764854 0.25292781
0.50848639 0.020823093 0.20713973
0.5265044 -0.043250266 0.2530742
0.51697624 -0.052593421 0.25459814
0.50725567 -0.061263673 0.20904505
0.50438851 0.026561165 0.2412547
0.49119061 0.021789435 0.24886279
0.48918781 -0.054409977 0.21530056
0.52068162 0.015907409 0.2028798
0.46255356 -0.027002677 0.24632947
0.50266284 -0.061418451 0.22385877
0.46888307 -0.037147071 0.24453953
0.46865794 0.016993498 0.24884051
0.45278043 -0.0067498963 0.24986461
0.46789563 -0.041701399 0.22136007
0.53070939 -0.042107228 0.25346982
0.49985498 0.021594228 0.24484904
0.52851194 0.010183154 0.23671702
0.47253203 -0.041362502 0.21205983
0.46725392 -0.039322343 0.24864419
0.54071081 -0.01610066 0.25366583
0.54568797 -0.015326549 0.25157222
0.48824474 -0.057371985 0.25157627
0.50249368 0.020209743 0.19560446
0.53243309 0.008028239 0.25044826
0.51028389 -0.060720805 0.25196972
0.4717564 0.002415847 0.22013064
0.53461516 0.0094033163 0.2543174
0.51046175 0.023917569 0.22631851
0.49977982 0.02378262 0.1974571
0.48689374 0.023466282 0.25021023
0.48874995 0.019039897 0.23055434
0.5219028 -0.055078253 0.24197006
0.50108457 -0.054003276 0.2544944
0.52740294 0.016028918 0.25262254
0.48011044 -0.053896092 0.21200608
0.49310854 -0.057935476 0.2333001
0.52334994 0.022398628 0.24912006
0.48663124 0.022505267 0.202988
0.50055003 -0.062329009 0.24945138
0.47539687 0.0078075426 0.21814539
0.48324707 -0.056411169 0.21359754
0.46522892 -0.043599535 0.25234535
0.51912326 0.01657168 0.21742782
0.50034326 -0.055258051 0.25452396
0.47751826 -0.047532085 0.21654984
0.48610148 0.030203739 0.25171712
0.47204626 -0.043734554 0.22479877
0.54274964 -0.0047117909 0.25190276
0.53685242 -0.027293418 0.25416401
0.47562045 -0.046847217 0.23219785
0.49886915 0.04589624 0.2219637
0.53128958 0.0056647663 0.24678199
0.53171587 0.007478022 0.24998386
0.50383174 0.024174903 0.24312785
0.49838579 0.030400498 0.23497663
0.49995789 0.02894908 0.2487603
0.49229017 -0.060147341 0.25294968
0.54442734 -0.025223555 0.25105488
0.50116527 -0.056179464 0.25428575
0.49884358 0.020041075 0.18940976
0.51979095 0.015334623 0.19791594
0.4911505 0.028492818 0.2463977
0.48877919 -0.055655569 0.2141616
0.46871749 -0.0046234196 0.22832561
0.5267362 0.012014143 0.23846799
0.49685988 -0.059504908 0.19451222
0.48116207 -0.050720736 0.21641773
0.5333544 -0.0012734114 0.21190658
0.49072301 -0.05780527 0.2482509
0.46906313 -0.043188196 0.22089028
0.52055216 -0.05491757 0.21696682
0.47277153 -0.042465802 0.22669967
0.52563167 0.013426065 0.23620811
0.46185893 -0.0094544366 0.24943149
0.45864478 -0.031241359 0.24954043
0.52807099 0.010094027 0.22828944
0.46184134 -0.025227282 0.19832771
0.48195243 -0.056368012 0.20266044
0.46480021 -0.010210359 0.24275312
0.5046435 -0.060267903 0.24644955
0.51406574 -0.057802338 0.21911487
0.463833 -0.018089049 0.24334106
0.50742066 -0.062187284 0.21977641
0.49891919 0.020858102 0.24998124
0.52022958 0.018368639 0.22476524
0.45296806 -0.0027716812 0.25019336
0.51281554 -0.058311906 0.21744148
0.48679906 0.020142069 0.24822588
0.49913758 0.03598544 0.23350437
0.51791978 0.020399787 0.24668872
0.53363085 -0.046241272 0.21418692
0.46412155 -0.030939693 0.20240358
0.49631596 -0.058898233 0.24402438
0.52165526 -0.059605327 0.19539301
0.46510524 -0.027589206 0.24199729
0.53290498 -0.00083465304 0.24177955
0.48418242 -0.051528357 0.21338278
0.47730294 -0.047835715 0.21939099
0.47751322 -0.048606783 0.22549549
0.52409416 0.013884727 0.23165785
0.46029836 0.010930451 0.25070524
0.53066766 0.007339349 0.23983923
0.52420652 -0.052791297 0.23691897
0.51908797 0.0180046 0.21982053
0.52791709 0.0089910254 0.22739264
0.49669468 0.024531184 0.24595757
0.52983212 0.0092616836 0.24216305
0.46652633 -0.03781594 0.24795952
0.49021161 -0.056232039 0.23978603
0.4726797 0.025777444 0.24936062
0.50556636 -0.062179081 0.21929356
0.5275991 0.011459652 0.21331145
0.52299124 -0.047688395 0.25332674
0.52935982 0.0078581339 0.21748693
0.47206664 -0.047547784 0.25074807
0.47071928 -0.042626638 0.20459133
0.53484207 0.0017158752 0.21897483
0.49548694 0.038630161 0.230774
0.53834003 -0.00042348093 0.25448331
0.49493733 0.023621026 0.19338082
0.47273165 -0.04294385 0.2346763
0.49866802 0.024359707 0.22978438
0.54447931 -0.0025528634 0.24866037
0.49882174 -0.059918061 0.22324157
0.49018091 0.021964567 0.24790673
0.54133517 -0.026998688 0.25252232
0.53412199 -0.0015922167 0.21479213
0.50102389 0.020540502 0.19518122
0.46639329 -0.012054775 0.22726932
0.53380036 -0.004258302 0.2004644
0.45599529 -0.019533753 0.2516363
0.50519741 0.04463581 0.22517526
0.51321554 0.020333271 0.1953626
0.46969962 -0.042059138 0.23966935
0.46313757 -0.010337052 0.24835484
0.46876383 0.00031398138 0.23877932
0.49854666 0.038246602 0.23098755
0.51873523 -0.055611692 0.21693291
0.46581167 -0.034890294 0.24760364
0.49259722 0.019984551 0.21830723
0.50113958 0.028534388 0.24773531
0.51830584 0.020958075 0.21801443
0.50524694 0.027035784 0.2420664
0.51332325 -0.059348788 0.24338676
0.54493886 -0.011050849 0.25261095
0.48020247 -0.052761491 0.19465542
0.47678912 -0.047801342 0.23232746
0.53596073 -0.0042234799 0.21519256
0.490435 -0.055757131 0.21644644
0.5491178 -0.015665572 0.24991944
0.51135683 -0.060029887 0.22939606
0.46459818 -0.0073052724 0.24958509
0.53891504 -0.01319206 0.25349322
0.46044156 -0.0054345559 0.25372154
