# .PCD v0.7 - Point Cloud Data file format
VERSION 0.7
FIELDS x y z
SIZE 4 4 4
TYPE F F F
COUNT 1 1 1
WIDTH 1412
HEIGHT 1
VIEWPOINT 0 0 0 1 0 0 0
POINTS 1412
DATA ascii
0.50231981 0.035432424 0.2472326
0.5781526 0.050212499 0.23733039
0.49585783 0.037567697 0.24742997
0.54671454 0.085871056 0.23433319
0.57486969 0.065698497 0.24970354
0.56152576 0.0095041264 0.22761595
0.54377723 0.083638661 0.22674493
0.57831377 0.060864482 0.24930041
0.57753247 0.022972079 0.24160086
0.50520575 0.019526413 0.24752739
0.57921582 0.058281142 0.25197983
0.50260299 0.080939688 0.24921298
0.5259577 0.011255358 0.19272955
0.52614802 0.011656787 0.2323924
0.56442636 0.075844154 0.22991839
0.52171117 0.079254851 0.24742526
0.53559589 0.0034878918 0.24321361
0.53873569 0.002799741 0.22830786
0.57326502 0.064235985 0.2423465
0.57315105 0.062002212 0.21897365
0.50234872 0.059813261 0.24838114
0.56612569 0.070103243 0.19409975
0.51616538 0.090833783 0.24755238
0.54171127 0.0098961787 0.20018835
0.56030816 0.080706157 0.2312945
0.49878806 0.077066027 0.24565901
0.54771775 0.088165186 0.24222191
0.5301227 0.0091674598 0.20154953
0.53930771 0.092204891 0.23384154
0.51145273 0.068609923 0.19264552
0.56123799 0.078681283 0.2126983
0.50892198 0.021673467 0.20886877
0.55346334 0.084439568 0.239326
0.56123346 0.079074129 0.22381738
0.56494766 0.074755594 0.22533323
0.55363768 0.082926385 0.21310271
0.539994 0.0033750001 0.22356491
0.57640356 0.072528295 0.24603891
0.57703161 0.074547037 0.24700361
0.50604832 0.02522788 0.2302575
0.54088104 0.088055015 0.2344065
0.50236231 0.032479998 0.24848591
0.52366817 0.087456629 0.24626774
0.57296413 0.070380986 0.25078174
0.51047248 0.019629581 0.24745756
0.53820622 0.08816801 0.22357555
0.57235527 0.070204988 0.24897084
0.51452357 0.014828889 0.25286037
0.51414388 0.016240748 0.24398516
0.53122437 0.088478379 0.20245306
0.55336666 0.0075347638 0.23359279
0.54044473 0.10497581 0.22617233
0.55488467 0.082298331 0.20518534
0.51487052 0.015994459 0.21735048
0.56433004 0.076868691 0.22515069
0.57370806 0.061577503 0.20948181
0.50134993 0.033453509 0.2297425
0.54016542 0.086838931 0.20469184
0.56561947 0.071914956 0.19651881
0.57573545 0.059501141 0.24830283
0.57407093 0.0083414353 0.24895188
0.51617801 0.071720235 0.22615135
0.5775516 0.049518045 0.24732663
0.52481598 0.0033184343 0.25050387
0.49610168 0.062835284 0.24996108
0.52111983 0.078606114 0.24683487
0.56698805 0.079039812 0.24028721
0.51612687 0.011279363 0.20947538
0.54211199 0.085426733 0.23973839
0.53764319 0.088070035 0.23538627
0.5131402 0.017975362 0.22329871
0.53523868 0.092138477 0.24928269
0.55830544 0.081985325 0.22574699
0.49986717 0.040074784 0.24707747
0.51068079 0.064425237 0.21407002
0.54489553 0.0038588177 0.24737412
0.5212546 0.0099328514 0.22472477
0.56482345 0.074607126 0.21838723
0.55975688 0.079329714 0.21373522
0.51531434 0.0088016447 0.2484073
0.53960788 -0.0011881168 0.24968149
0.56631893 0.008746543 0.2469179
0.56866604 0.06996049 0.22514567
0.56881136 0.066120416 0.19801877
0.51852977 0.014209092 0.21799843
0.55268198 0.084038757 0.2161182
0.55884087 0.083121218 0.24447416
0.58024436 0.06738843 0.24626586
0.5548377 0.0072426191 0.22781564
0.54062456 0.086657666 0.20615862
0.51017892 0.060885306 0.19096678
0.58050466 0.049026966 0.25261223
0.56159413 0.078828871 0.22924586
0.58479428 0.032367732 0.25009587
0.5831151 0.058754224 0.24736123
0.55722189 0.08408837 0.24296431
0.50293261 0.027630858 0.25017735
0.51951188 0.011739691 0.23574209
0.5737884 0.025208445 0.25308973
0.53418261 0.086008541 0.19544962
0.49693608 0.040394943 0.2230168
0.50841606 0.023162268 0.22865097
0.57344323 0.059377782 0.20365436
0.53441232 0.087739512 0.24564061
0.56340104 0.076420546 0.22166933
0.49441129 0.059654005 0.24941322
0.54539239 0.093098074 0.23318443
0.57746273 0.061454356 0.25202602
0.56370425 0.077246435 0.23191932
0.51517868 0.070104592 0.21936569
0.51076365 0.020135621 0.2222625
0.50154352 0.029380489 0.25121158
0.54999208 0.0032700107 0.2409959
0.50353169 0.030383052 0.22458661
0.51241952 0.01813741 0.22167727
0.50289559 0.032230031 0.22290009
0.57652026 0.051818311 0.20649798
0.51653516 0.016160246 0.23326032
0.53841007 0.087571956 0.20699778
0.54737133 0.0042405846 0.20922327
0.53903013 0.082415439 0.21306722
0.51310474 0.069788434 0.19017714
0.5680396 0.080981039 0.24600457
0.50021392 0.035415225 0.23193397
0.51174235 0.018309657 0.24492088
0.52765995 0.089037694 0.20230517
0.53535146 0.0033735496 0.21791665
0.57257634 0.016120663 0.2182714
0.54791498 0.087209411 0.22672909
0.52156597 0.013296796 0.19593896
0.53834146 0.084101871 0.24726428
0.56082052 0.08149673 0.24569257
0.58911818 0.039045028 0.24641493
0.57412678 0.058309779 0.2208346
0.56259578 0.082016669 0.24146459
0.52576977 0.086920038 0.2376375
0.52907926 0.0060139159 0.2175889
0.52986097 0.0022200381 0.24906406
0.51878488 0.0076734805 0.24638958
0.56080377 0.080809407 0.23401751
0.54880702 0.085079581 0.212097
0.50943607 0.021620765 0.21722965
0.51147717 0.019074256 0.19884545
0.53827322 0.087266788 0.24265057
0.56975615 0.069518946 0.22675931
0.56475347 0.072780192 0.20481588
0.5842998 0.050510656 0.25103596
0.56646311 0.071158744 0.20318359
0.51391792 0.016664993 0.19431661
0.55903548 0.0063009355 0.24402213
0.49902993 0.039286871 0.22332375
0.54984349 0.08365012 0.2129907
0.54399192 -0.00075107749 0.25005683
0.54255128 0.094310991 0.23232791
0.58246505 0.06599699 0.24697052
0.54312396 -0.0018473738 0.24988157
0.5194723 0.075476557 0.18971075
0.51925719 0.011448657 0.19145827
0.54208905 0.0096689239 0.21917877
0.5704127 0.064466447 0.20036617
0.53395969 0.087707192 0.2290781
0.54798913 0.0056565064 0.23098373
0.54732591 0.095912464 0.2330385
0.52367443 0.008383723 0.24895735
0.56630516 0.075705573 0.23759502
0.5141952 0.072791532 0.23884217
0.52288926 0.076638646 0.22382645
0.57759398 0.024025599 0.25084066
0.58192617 0.052842718 0.24914198
0.511801 0.019825801 0.22529897
0.56138629 0.080591924 0.24126688
0.56463873 0.077691413 0.2267662
0.54605496 0.092182294 0.24592376
0.51730728 0.016044866 0.232236
0.51163048 0.018989399 0.20885023
0.51614195 0.016745329 0.23889668
0.51720458 0.014402825 0.20524408
0.51529908 0.0082062781 0.24880801
0.57229918 0.015626503 0.23675676
0.57181412 0.069620252 0.24824862
0.56484842 0.075200967 0.22560862
0.52005541 0.0089415396 0.19787073
0.5680536 0.075045772 0.21873525
0.54243541 0.0089270305 0.21746337
0.50563788 0.06466832 0.24746153
0.50800127 0.062868305 0.24760191
0.5047822 0.058609817 0.2466213
0.5139733 0.069903433 0.23344266
0.5689041 0.069515139 0.21817517
0.55496716 0.008597279 0.24352174
0.50938725 0.021647137 0.21180713
0.50116819 0.02853379 0.25038511
0.57090533 0.066780522 0.22129378
0.55325717 0.086292222 0.24110723
0.57901692 0.069870204 0.24705091
0.58520132 0.051595315 0.24993065
0.57663882 0.054588296 0.21402168
0.5159927 0.0052787545 0.24917425
0.53845906 0.079304129 0.20270054
0.55591488 0.08193846 0.21495073
0.52089632 0.0086753583 0.25174215
0.52209008 0.088582955 0.24907367
0.54377592 0.0040661795 0.22183567
0.50628299 0.084645718 0.24986285
0.5095486 0.083229989 0.25057214
0.50476128 0.024627641 0.24537052
0.54609251 0.085160129 0.19851288
0.53189009 0.0085746003 0.19529159
0.5301131 0.087123096 0.23335057
0.49405175 0.039658919 0.24800317
0.50165218 0.032321334 0.22229959
0.57235998 0.063780159 0.22933847
0.50983864 0.063699625 0.1915801
0.49463105 0.064057715 0.25007328
0.5792737 0.022031102 0.24891698
0.53392106 0.0043217009 0.23446384
0.53457677 0.0040894593 0.23178817
0.52576679 0.0050291996 0.24641511
0.56867731 0.071252957 0.23558317
0.54647076 0.10092922 0.23135845
0.53876078 0.09416227 0.23278062
0.58174551 0.053116284 0.25040811
0.55082899 0.083989367 0.19784604
0.5803293 0.048725482 0.24979694
0.54233474 0.0077614281 0.2111333
0.5721069 0.064423963 0.22561581
0.51159436 0.018073691 0.23622347
0.57426637 0.06487453 0.25093189
0.51565295 0.013307143 0.24692823
0.5710032 0.016241789 0.22772135
0.52857453 0.086845443 0.214718
0.50533497 0.056190278 0.24807271
0.54284716 0.010000107 0.21983039
0.53803116 0.083398119 0.24786347
0.55015844 0.086360909 0.23691237
0.52445489 0.011163316 0.1918544
0.52970231 0.0098614804 0.23839235
0.54107326 0.08565256 0.1948263
0.53284401 0.088623293 0.23457068
0.54436725 0.10312867 0.2282581
0.57382727 0.058549054 0.23032792
0.53627288 -0.00016634403 0.25043753
0.58545077 0.028534347 0.24529359
0.54236484 0.0014640203 0.2467415
0.5713675 0.066267639 0.22387141
0.57471794 0.022003058 0.25082213
0.51353377 0.017419701 0.21768428
0.54881191 0.0052543734 0.21047759
0.49909726 0.03257386 0.25090033
0.5461697 0.0044375868 0.21482879
0.55242771 0.084436759 0.22575293
0.55861843 0.084385991 0.24799596
0.50025702 0.043508079 0.24718486
0.54168957 0.086872026 0.20418099
0.51123023 0.019226952 0.2419858
0.51380229 0.073803052 0.243358
0.5453493 0.084072404 0.2300797
0.57586205 0.059377309 0.24421763
0.51069027 0.067599982 0.24089245
0.55530876 0.010614913 0.23130195
0.56112605 0.078501076 0.21656705
0.56585169 0.071027614 0.1986966
0.57232064 0.06082391 0.20005679
0.57160747 0.01564873 0.22710511
0.51898044 0.076694839 0.24774523
0.53802723 0.085752361 0.19461775
0.51813418 0.010959496 0.25329813
0.52309 0.0057197865 0.20379569
0.55586064 0.0081379795 0.22917406
0.58112103 0.060209446 0.24725434
0.56983382 0.021816829 0.25117043
0.51964289 0.087529838 0.24292018
0.55769652 0.079870552 0.21573555
0.54119146 0.086640351 0.19968064
0.5267294 0.0071722087 0.2165575
0.54572558 0.08953429 0.24487013
0.55514508 0.08255095 0.22175898
0.49623519 0.038739353 0.24985132
0.5562306 0.081530057 0.20263341
0.58635247 0.040698241 0.24858893
0.54241842 0.082786508 0.20439589
0.57727188 0.048062529 0.24474825
0.51051909 0.019541711 0.19867581
0.54179591 0.088583134 0.2407034
0.51361841 0.069572203 0.18858407
0.57682914 0.053292915 0.23618495
0.52836287 0.088385791 0.1994938
0.5251599 0.0035410663 0.25020874
0.52885503 0.006417918 0.21359606
0.57316184 0.065709628 0.24337864
0.50557286 0.02631513 0.23757422
0.54239595 0.087067172 0.2195978
0.49447009 0.063883796 0.24985848
0.54253328 0.089926928 0.23396413
0.55288023 0.086957827 0.24139598
0.51953071 0.075774059 0.23218463
0.55825311 0.082698084 0.23707646
0.54835796 0.0045542438 0.21024264
0.55184323 0.0054285242 0.22797406
0.54843491 0.082913205 0.24498965
0.56314415 0.010756962 0.2388979
0.56139404 0.0072282874 0.24621676
0.57513511 0.061367024 0.24800342
0.57218468 0.065921232 0.23488629
0.5284 0.083216503 0.24168833
0.49352878 0.043909635 0.24815142
0.54138792 0.095349371 0.23214017
0.55957443 0.0086216498 0.22292323
0.54343432 0.0054249954 0.21945614
0.58586735 0.029176794 0.24550919
0.50753492 0.082312465 0.25016737
0.53936046 0.086737812 0.24380763
0.56364423 0.074457727 0.20545807
0.50604171 0.023294659 0.24642853
0.56177157 0.011417937 0.24112432
0.53075933 0.0052281963 0.23267399
0.5376783 0.0027205083 0.22881448
0.52410257 0.011557968 0.22715889
0.50315124 0.02724825 0.20852928
0.55839431 0.07937476 0.19543532
0.52230036 0.078590505 0.23771015
0.55938178 0.077899776 0.21293107
0.5068782 0.024419865 0.22469118
0.50962412 0.065820128 0.24749845
0.52054012 0.079528436 0.24647327
0.5117594 0.086279154 0.24994811
0.57923222 0.043042731 0.25157425
0.50472319 0.028325984 0.23454002
0.56143194 0.076163985 0.19740529
0.52429014 0.0086412169 0.21918048
0.49331483 0.046736296 0.24741468
0.53555888 0.0031181767 0.22691379
0.51040924 0.018574845 0.22366196
0.584369 0.053335462 0.24841143
0.5846386 0.033305645 0.24729812
0.50121903 0.057086397 0.24924736
0.5163995 0.087319925 0.24643888
0.5405702 0.0088699292 0.21641932
0.56069517 0.0090130046 0.23140113
0.56084853 0.083578303 0.24995171
0.56281781 0.076905303 0.22171383
0.54196727 0.0058573824 0.2274238
0.5423609 0.089229502 0.23471421
0.58440077 0.030763181 0.25005326
0.57709551 0.051233571 0.24428585
0.55389273 0.084959969 0.23775752
0.51138324 0.017862938 0.21607158
0.52766198 0.089192145 0.20106632
0.57215995 0.027893031 0.25148836
0.55563939 0.085052572 0.24282587
0.52868611 0.0022054187 0.24698314
0.50971055 0.063558087 0.19279255
0.52104104 0.01205472 0.22723499
0.49476266 0.062110327 0.2500608
0.50866568 0.064655378 0.24740736
0.57605314 0.059237253 0.24692476
0.56894708 0.074816756 0.23190966
0.57120126 0.066360123 0.21572673
0.55444169 0.083480768 0.1985011
0.53313297 0.089395314 0.24718903
0.51867181 0.013709784 0.19468917
0.50319636 0.029126488 0.23160276
0.57045031 0.025453566 0.2514776
0.52847677 0.0094226003 0.20897736
0.55513954 0.087976843 0.25013128
0.54596353 0.0026569148 0.23803665
0.53227931 0.083021797 0.2337098
0.51323062 0.071303762 0.23834291
0.57234049 0.074061073 0.24370843
0.50817293 0.020719651 0.24700232
0.50648558 0.073024571 0.24721561
0.50332761 0.026456468 0.2080397
0.57073253 0.075521596 0.2427873
0.52637982 0.0064519127 0.23247108
0.55160475 0.0022012591 0.24355854
0.50716245 0.056546792 0.22818017
0.54696149 0.087818474 0.23479009
0.52330309 0.013038443 0.19397347
0.55406922 0.0065569966 0.21776523
0.54116768 0.086761311 0.23792027
0.54803669 0.0054578204 0.23831041
0.56741428 0.071362838 0.22550821
0.54683983 0.091739818 0.23346192
0.5511933 0.0057007778 0.22841413
0.54836297 0.088329174 0.24268951
0.50316018 0.052334126 0.24721669
0.54052722 0.090042323 0.24695253
0.53491265 0.084867924 0.24695601
0.57836336 0.053108346 0.2206255
0.52346522 0.091788404 0.250824
0.49447742 0.062954552 0.24917664
0.5752579 0.074025057 0.24699587
0.57545328 0.066383712 0.24942295
0.50706393 0.063072391 0.24786943
0.50715744 0.023993516 0.21640289
0.5598948 0.077431396 0.21118468
0.54796588 0.08940842 0.23452169
0.50748378 0.072044969 0.24619772
0.50622725 0.061788056 0.20936419
0.52426887 0.011323088 0.21895126
0.54653132 0.00035831556 0.24695779
0.56823742 0.011654944 0.24289453
0.54974025 0.087404482 0.23868506
0.55755645 0.088133775 0.24731709
0.58564723 0.055650234 0.24832854
0.52552193 0.086204097 0.22749837
0.50781584 0.079166278 0.24799636
0.57682079 0.064749256 0.25140494
0.57061082 0.064680547 0.20063061
0.57414824 0.026844988 0.25313678
0.52971566 0.0014562196 0.25090602
0.56725699 0.0035394973 0.25123605
0.5390175 0.092530683 0.23375051
0.5529902 0.003962887 0.24179719
0.50684327 0.060328402 0.20199202
0.51675957 0.012079126 0.24561675
0.56823111 0.013718104 0.21988593
0.51492137 0.079597615 0.24766023
0.53295422 0.087978795 0.22603057
0.56748831 0.072579578 0.22915383
0.51853472 0.013993843 0.19211729
0.54917544 -1.2190858e-05 0.24861512
0.56960088 0.069384716 0.22793077
0.58033007 0.054705393 0.24996406
0.54291862 0.0055301771 0.21833411
0.54423714 0.088226303 0.23227374
0.56212831 0.078765973 0.23625609
0.50663549 0.02318817 0.20605056
0.53257489 0.086585186 0.19501162
0.52368903 0.0077811275 0.25258228
0.53885335 0.084359169 0.22926138
0.54815835 0.08348579 0.24472937
0.54291427 0.009018369 0.1988328
0.51339549 0.069086254 0.24753794
0.53417349 0.087651543 0.23727554
0.50748187 0.059232596 0.23092608
0.52534926 0.0021102806 0.25234848
0.57808048 0.068084359 0.24716865
0.50597215 0.025705377 0.22786108
0.55010706 0.086038291 0.23110409
0.52781016 0.090188891 0.24926953
0.5255999 0.088314451 0.24669898
0.55569643 0.086936049 0.24612767
0.50084996 0.059704572 0.24894731
0.52732641 0.084277317 0.24403211
0.50439942 0.05695409 0.24796888
0.55829632 0.08224427 0.23541079
0.57051581 0.0237935 0.2516416
0.5740478 0.024044218 0.25236988
0.50382966 0.02914072 0.23601526
0.52934283 0.088012315 0.20245241
0.50994998 0.018351346 0.22528103
0.55329496 0.084330425 0.22478634
0.51957977 0.076267183 0.19014701
0.53336644 0.08808434 0.23986936
0.58738828 0.047712781 0.25028777
0.50293028 0.02756254 0.20728864
0.5399949 0.00079732016 0.24820083
0.51931798 0.073460624 0.22339739
0.56268299 0.077352121 0.21790934
0.52095312 0.085892551 0.2221065
0.49561584 0.038653795 0.24810152
0.56413984 0.076082312 0.22994027
0.57591403 0.057246067 0.24131873
0.49900544 0.031490237 0.25140527
0.5163976 0.01568044 0.21523109
0.53780603 0.08601819 0.24622561
0.55728269 0.081992738 0.19515134
0.57424921 0.071715176 0.24768442
0.50715214 0.078305259 0.24158865
0.54273248 0.0024774764 0.24744534
0.57490468 0.059069376 0.21098147
0.54339725 0.0080808969 0.25120413
0.51379663 0.073855869 0.24675579
0.52781218 0.079907797 0.21751758
0.51520252 0.071601868 0.19288591
0.54554617 0.088353842 0.23577891
0.5309003 0.003183787 0.24797961
0.51660711 0.070027933 0.21000393
0.54727662 0.004829749 0.22580226
0.55776411 0.080651194 0.2109322
0.51988965 0.074852012 0.20035586
0.53767031 0.0026584778 0.22631121
0.57313895 0.062779553 0.23578814
0.54231715 0.0069138259 0.24976265
0.49910888 0.039853666 0.22378443
0.49394801 0.046509184 0.24758719
0.57960051 0.051474292 0.25257877
0.55002403 0.0041870531 0.20682676
0.56682432 0.074085966 0.23397072
0.54677081 0.084147312 0.20836692
0.56870365 0.067129008 0.19735134
0.57272625 0.062595703 0.20564406
0.57541275 0.01761716 0.24536802
0.57665098 0.017098503 0.24452963
0.53736049 0.003588865 0.21308954
0.58017772 0.024658766 0.23425245
0.55607152 0.0012547544 0.24990979
0.53502262 0.088042118 0.22718832
0.54566336 0.085193157 0.19018307
0.54138929 0.086496882 0.24193984
0.5366168 0.082690731 0.24766539
0.53097355 0.082101457 0.22498772
0.57453364 0.071653247 0.24760325
0.5248546 0.079506695 0.22972278
0.51566827 0.015744217 0.20811671
0.53530025 0.0012280997 0.24993214
0.5568586 0.0093809795 0.23822255
0.55223399 0.0057762479 0.228021
0.52761453 0.087542415 0.24179557
0.57179737 0.065396801 0.2315833
0.57723051 0.042741623 0.2489229
0.58401108 0.060141001 0.24772954
0.57225013 0.059529811 0.19770992
0.56898826 0.073311083 0.24403879
0.55772012 0.080698133 0.19293356
0.55668181 0.083360814 0.23130575
0.5066998 0.060505483 0.19344802
0.58707082 0.035494007 0.2495961
0.57733232 0.019127993 0.24805334
0.5407424 0.08692725 0.21183664
0.5569551 0.085768603 0.24812287
0.55117929 0.084453017 0.19666155
0.56789851 0.0033998245 0.25105295
0.53392726 0.0025247494 0.24711573
0.5106526 0.01971137 0.19481088
0.57212782 0.074205182 0.24822108
0.5022046 0.058272135 0.24803905
0.49732739 0.035207078 0.25053906
0.51411605 0.074850306 0.24723412
0.54958683 0.082406215 0.24483049
0.50643259 0.022715673 0.25027299
0.56435841 0.0096733626 0.21781145
0.56720543 0.075087264 0.24168409
0.49474964 0.039963786 0.24860302
0.53227234 0.086836696 0.1950347
0.53859001 -0.0015578555 0.25036347
0.56584865 0.074109815 0.23211031
0.58617818 0.041972 0.24951257
0.5820024 0.031109927 0.24956211
0.52859038 0.081325091 0.23423271
0.54046476 0.10575654 0.22564687
0.53528726 0.084152527 0.23561864
0.55853152 0.083762139 0.24748889
0.53879374 0.0095240464 0.2173018
0.54904342 0.098304912 0.23199078
0.53218895 0.0033316254 0.24478045
0.53893268 0.080257162 0.20681514
0.56257081 0.078620136 0.24315587
0.49756953 0.031808577 0.24951495
0.5575338 0.0019168209 0.2501173
0.55910569 0.0087785926 0.22446121
0.58094198 0.05585311 0.24894141
0.51668721 0.015260062 0.22590798
0.53117853 0.084171847 0.24647297
0.5396142 0.086946301 0.20989074
0.56109399 0.010281241 0.23668121
0.53622985 0.081311584 0.21233171
0.50412881 0.027265232 0.21042089
0.56094044 0.078928582 0.21272099
0.50318629 0.024538852 0.24852087
0.54976118 0.082098037 0.24623351
0.50297552 0.028401988 0.21199426
0.50220186 0.041907717 0.24613507
0.51194978 0.016973605 0.22660808
0.5219152 0.088394046 0.24884033
0.51472545 0.015571196 0.24545249
0.50219208 0.042589206 0.24666755
0.58675951 0.035034731 0.25003389
0.55505514 0.081892453 0.23336893
0.52417982 0.087807707 0.24556223
0.57309198 0.06504634 0.24149767
0.52765107 0.08003632 0.24690433
0.57044029 0.075073957 0.24837078
0.56820238 0.078844793 0.25176239
0.52355397 0.011792664 0.21485193
0.49464202 0.054020286 0.25079525
0.52859718 0.085541256 0.24540129
0.54921937 0.0060018715 0.23689815
0.55017012 0.083755411 0.19673686
0.56917733 0.072428308 0.24213493
0.51360714 0.018015752 0.22493328
0.50267148 0.031119898 0.22873014
0.56298518 0.074928552 0.19326603
0.5594005 0.0076722736 0.24295747
0.56252748 0.083805703 0.24507245
0.54543245 0.083040491 0.24746889
0.49695534 0.034923386 0.24877587
0.51002073 0.020753158 0.2223192
0.53752798 0.088042952 0.21634918
0.53006607 0.0019731068 0.2504133
0.581379 0.030218808 0.25052696
0.57104325 0.060533047 0.19780201
0.5320546 0.087427907 0.21566321
0.52847934 0.0052366932 0.22600438
0.54824078 0.088566244 0.23496117
0.57768518 0.066470332 0.24429713
0.55796975 0.085775435 0.24570613
0.50326735 0.020856312 0.24791074
0.54759371 0.089000277 0.24412552
0.50661176 0.025151303 0.23727334
0.56634557 0.069774933 0.1953295
0.53823197 0.0093194321 0.19924776
0.57831484 0.06280686 0.25212795
0.5041827 0.067580909 0.24860513
0.50885385 0.022554407 0.21083623
0.50513744 0.023581527 0.20418222
0.56535393 0.080495268 0.1945675
0.50721949 0.079014719 0.24756418
0.53607291 0.0032206618 0.21516022
0.56851447 0.072200797 0.23890308
0.52662778 0.0040706294 0.24774316
0.5486874 -1.0368401e-05 0.24754964
0.55660957 0.084975943 0.24464442
0.53417659 0.089486435 0.24133925
0.56559551 0.0057728672 0.24919729
0.57058948 0.067172982 0.20922826
0.50059026 0.0365371 0.22348645
0.54158461 0.085195519 0.24514724
0.51733744 0.07377813 0.19580004
0.49499381 0.045654599 0.24887216
0.56833726 0.06951911 0.2205815
0.51940191 0.011896303 0.25467047
0.55074328 0.086026937 0.23414533
0.52769279 0.084955819 0.24617733
0.50193226 0.028319515 0.21949671
0.52798194 0.0072330814 0.21470532
0.57834399 0.052542266 0.25133806
0.57737952 0.068410471 0.25305313
0.50609785 0.059967179 0.24564841
0.53667086 0.0031114682 0.23408392
0.57459331 0.028098641 0.25294715
0.50198573 0.026700653 0.25082532
0.57033676 0.074303314 0.24955726
0.5067926 0.057876974 0.23412497
0.51249355 0.015665434 0.25103343
0.53252709 0.0040242011 0.22379459
0.56383353 0.075231515 0.21019262
0.57395059 0.061062064 0.21600139
0.55404174 0.085595652 0.23966067
0.52545363 0.087288626 0.24044755
0.52677089 0.011643605 0.23677906
0.54866666 0.084085979 0.20587255
0.50583559 0.02492873 0.21773696
0.58434355 0.046296481 0.24911284
0.55896842 0.0085544474 0.24128518
0.56901973 0.065185383 0.19744062
0.58430886 0.051797148 0.24874434
0.57131016 0.066769324 0.20796354
0.53075475 0.081616715 0.23100789
0.57101691 0.011800404 0.24415213
0.51567626 0.0062484476 0.24866822
0.50078684 0.052937835 0.24963169
0.50845307 0.062775716 0.24138696
0.56979394 0.073716782 0.24883282
0.5609771 0.083605222 0.24311523
0.54547298 0.082274646 0.19781673
0.57458735 0.056232087 0.23038019
0.58073127 0.068398967 0.24667597
0.56995428 0.0044909511 0.25072148
0.56613809 0.076298483 0.22404046
0.52130646 0.0036055548 0.24927346
0.53670597 0.08731702 0.20724829
0.56531858 0.078178823 0.2329994
0.5060994 0.025169773 0.21941052
0.50495744 0.02477913 0.20767727
0.55188429 0.0017413693 0.24629067
0.58677292 0.035558872 0.24968113
0.50997359 0.079940885 0.24701913
0.50413007 0.038144048 0.24438673
0.52856648 0.010560106 0.23288208
0.52198315 0.07813783 0.24804793
0.53590846 -0.0012696899 0.2513245
0.52422166 0.012492678 0.23468241
0.5605582 0.087023154 0.24661863
0.53871083 0.088978954 0.23495971
0.52541143 0.079909459 0.23346706
0.57296783 0.070207544 0.24795906
0.5354864 0.085140631 0.23987043
0.54531175 0.10915011 0.2213183
0.5432691 0.083731838 0.20834666
0.56304574 0.0083294287 0.24095666
0.5464313 0.099389672 0.23239462
0.55199879 0.00662862 0.23237333
0.53411549 0.085841522 0.24537998
0.55049253 -0.0005918651 0.24843314
0.54420161 0.096668221 0.23260623
0.50072622 0.045189653 0.24887012
0.51642591 0.015863881 0.22350532
0.54546207 0.08792115 0.2327065
0.50804162 0.021954887 0.22078907
0.57245779 0.068740353 0.24794501
0.55324513 0.0057131979 0.2113758
0.58609539 0.031875953 0.24581254
0.51352227 0.016287608 0.19924134
0.54062879 0.081527971 0.20438436
0.53995872 0.087208323 0.21162315
0.55099624 0.08645352 0.24136576
0.53431779 0.083884224 0.23337503
0.51185727 0.068882391 0.2470597
0.54214656 0.089376941 0.24283157
0.54133946 0.00080025167 0.24762137
0.57634914 0.055861738 0.2215756
0.57673717 0.013794573 0.24929208
0.50789696 0.022881845 0.23628882
0.5520978 0.091057502 0.24766743
0.56735855 0.071872644 0.22720851
0.52712047 0.0047344868 0.2460288
0.51220495 0.017077353 0.21496487
0.57761687 0.049462918 0.24596703
0.5345639 -0.0012726245 0.25190398
0.55268764 0.084522597 0.23001774
0.5258562 0.076765686 0.24729276
0.58091545 0.023275655 0.24773774
0.55273116 0.08633174 0.23949991
0.53369439 0.083681613 0.23600386
0.52128756 0.0079626124 0.24384932
0.50487232 0.078719273 0.24743931
0.52294457 0.076832548 0.21396422
0.52048683 0.085926786 0.22188132
0.57542181 0.053581469 0.23158015
0.52065247 0.074750781 0.21864171
0.52238274 0.0057659843 0.2473809
0.5071699 0.027390914 0.24214676
0.56106377 0.085358627 0.24539137
0.54039443 0.088300698 0.23161854
0.5728935 0.012250531 0.24686971
0.49935314 0.032303911 0.25116891
0.52299649 0.012362427 0.22986637
0.52798665 0.090379603 0.24950509
0.57442021 0.072263777 0.24298069
0.51277524 0.068409815 0.24697827
0.54666936 0.085369498 0.20574695
0.5524646 0.084299408 0.23841742
0.57637489 0.056242291 0.24894917
0.57613367 0.070528328 0.24638686
0.5177213 0.011999041 0.24143501
0.51601738 0.078690939 0.2464226
0.54926324 0.085831739 0.22779055
0.57310122 0.063432634 0.22812621
0.55590153 0.0076379483 0.22138447
0.56407577 0.076049186 0.21634197
0.57679099 0.027756523 0.25096291
0.58054388 0.060335107 0.24741906
0.55960691 0.07805489 0.21417521
0.57691252 0.052659631 0.23982425
0.51501477 0.074116543 0.24733385
0.52089685 0.01240935 0.21658771
0.55792183 0.082224339 0.19626737
0.58392131 0.033619266 0.24964227
0.57635474 0.055422135 0.2375015
0.58451676 0.055518929 0.24843448
0.52342361 0.01090527 0.2087113
0.5048368 0.064263351 0.24755286
0.57844388 0.027285265 0.21512888
0.54293811 0.084108993 0.21493919
0.52108264 0.075561263 0.22517706
0.57520866 0.020829329 0.24990007
0.54522491 0.08601395 0.20680067
0.5707556 0.076258689 0.24745101
0.51715714 0.011202889 0.25295296
0.51136941 0.019322848 0.23417357
0.56789804 0.075374119 0.22273479
0.54223597 0.097175427 0.23184091
0.56840134 0.066767178 0.19556795
0.56267244 0.075742796 0.19911471
0.58109748 0.035259418 0.25122699
0.51256889 0.0079026585 0.2501817
0.56948549 0.078124188 0.25191978
0.56559712 0.07373023 0.21273986
0.53230059 0.081848659 0.24752901
0.56321496 0.076827683 0.21374622
0.57360625 0.064667329 0.24420208
0.50934678 0.063615531 0.22160742
0.5379737 0.008531386 0.19852746
0.54363209 0.0081150364 0.21615292
0.5206185 0.076933712 0.23616594
0.50208163 0.030393966 0.22110786
0.50954771 0.086157575 0.25002432
0.5205074 0.013909169 0.23102485
0.58513701 0.032113519 0.24636163
0.53400308 0.085385621 0.24064553
0.49499628 0.037669636 0.24568848
0.55052096 0.0048617828 0.22320823
0.53607875 0.088149369 0.21564928
0.51804471 0.0054325205 0.24819107
0.55077314 0.084586166 0.21955867
0.57127714 0.065619059 0.22334424
0.55044264 0.095678046 0.23312882
0.55092603 0.0069183665 0.23798099
0.56819677 0.069814809 0.2153085
0.54426628 0.0030264363 0.23852102
0.58103639 0.020647286 0.24733026
0.53302777 0.0028452547 0.24803026
0.57278198 0.062533833 0.20292042
0.55078042 0.08574827 0.22989781
0.51432097 0.070236422 0.19989388
0.55205184 0.0063910489 0.2110476
0.53837115 0.089804821 0.24382731
0.54478258 0.096281879 0.23261248
0.53473127 0.087866753 0.23096427
0.56878352 0.0089880871 0.2482471
0.55461305 0.084236361 0.23490252
0.58208424 0.061315324 0.24738239
0.53702688 0.088339925 0.24614777
0.57416821 0.026425678 0.25250348
0.51873893 0.0058819037 0.24759538
0.55603939 0.006585618 0.21819602
0.55639935 0.081632368 0.22310872
0.58077133 0.04844223 0.25367787
0.57548755 0.057876289 0.21718377
0.52527964 0.079253592 0.24716724
0.51235783 0.01855161 0.2300735
0.55169749 0.083716348 0.19910409
0.54239267 0.0017314837 0.22871816
0.50487876 0.023796508 0.20420195
0.5757497 0.068737023 0.25241867
0.58620018 0.030105118 0.24971598
0.56028163 0.076603204 0.22296323
0.52666122 0.088088177 0.24574812
0.56022936 0.079371601 0.20860417
0.5577597 0.082376897 0.22980469
0.57304287 0.063210599 0.23605466
0.55388081 0.083471544 0.22040533
0.54871881 0.097085461 0.23293753
0.56261742 0.0096144816 0.2297118
0.53008252 0.0099777812 0.2346206
0.54697317 0.087567315 0.23054917
0.5685268 0.069016479 0.21354267
0.5527904 0.08289592 0.190962
0.58193475 0.057990137 0.24837407
0.53801197 0.0021160578 0.24817953
0.56683296 0.078945354 0.25110105
0.52856529 0.079131342 0.20054668
0.52215713 0.012158077 0.21301739
0.50820851 0.062145412 0.20999053
0.56060499 0.0019393396 0.2500571
0.55520028 0.0035532417 0.24621463
0.54920459 0.084404968 0.23857592
0.52036512 0.0857713 0.23794849
0.50939202 0.06121492 0.19149959
0.53101325 0.0050050351 0.23653431
0.51128703 0.019692695 0.23440225
0.50787199 0.022033924 0.20721683
0.58493102 0.050313998 0.24882297
0.49786678 0.033015199 0.25056511
0.56109583 0.081700109 0.19460881
0.56925505 0.021669745 0.25075099
0.5332219 0.0041681472 0.2348658
0.50332612 0.029445373 0.24813949
0.49477705 0.049402483 0.24881379
0.51355517 0.012612836 0.24918757
0.55778205 0.080598772 0.21361105
0.55548114 0.085057259 0.23868251
0.56199783 0.081042804 0.23614512
0.58556944 0.050046589 0.24839073
0.52054024 0.07886263 0.24359709
0.50546402 0.025345301 0.22190666
0.55656481 0.079634055 0.18903895
0.53044224 0.004463546 0.24223359
0.54555017 0.0046512042 0.21905956
0.5829469 0.06112751 0.24713621
0.52645785 0.012145937 0.23562767
0.50230139 0.025283778 0.24994925
0.54347658 0.10719438 0.22340129
0.51226294 0.014976738 0.24817765
0.57497454 0.074086756 0.24707673
0.50592834 0.066664033 0.24731006
0.58239657 0.055792592 0.24835667
0.57369214 0.065991841 0.24928752
0.57023329 0.067436889 0.21193959
0.51803696 0.014457275 0.21114711
0.56452805 0.081213735 0.25018308
0.57866919 0.047495946 0.23966487
0.56118292 0.078503191 0.22066097
0.55900836 0.0099522294 0.24388663
0.52722293 0.0065440801 0.23077406
0.54692483 0.088033058 0.23899059
0.5086695 0.019924222 0.24644578
0.5516094 0.08649905 0.24385203
0.57540619 0.072218068 0.24685454
0.52479315 0.080649175 0.23915704
0.57136077 0.071722545 0.2482027
0.58865005 0.04937385 0.24792576
0.50936878 0.063150741 0.23749517
0.56884056 0.021700175 0.25055084
0.5351789 0.088207953 0.23822622
0.50770324 0.021851607 0.20699164
0.53761846 0.083924308 0.22578363
0.50530535 0.026966639 0.22572584
0.51807982 0.090564713 0.24702822
0.55592668 0.081341684 0.2158706
0.53488284 -0.00012867153 0.19368498
0.56988031 0.074336834 0.24933681
0.57037348 0.072178558 0.24530101
0.54649848 0.089988686 0.23476782
0.50369048 0.02779899 0.23088847
0.51020557 0.065116391 0.22464858
0.56774592 0.078878313 0.25154194
0.5043757 0.068882458 0.24807188
0.51899403 0.077224463 0.24738877
0.51530224 0.079625234 0.24751635
0.5424124 0.081281327 0.19601378
0.53738672 -0.0006083707 0.19165318
0.54820114 0.0053474167 0.21328121
0.54124385 0.087594636 0.23155372
0.5724318 0.074733011 0.2440792
0.57652587 0.023343481 0.25087583
0.55874759 0.0087269377 0.240761
0.50343978 0.028924154 0.23158419
0.51428723 0.068759121 0.21767758
0.51743913 0.074114598 0.24756767
0.52212793 0.081703983 0.24341339
0.53114229 0.081151657 0.2131363
0.52861959 0.080737472 0.22763929
0.56046104 0.079351172 0.22360693
0.5576092 0.081316985 0.20186274
0.56406194 0.08229515 0.25073078
0.57594305 0.066496775 0.24786381
0.58051133 0.059065845 0.24827331
0.54511714 0.003210993 0.23930728
0.58794552 0.040195841 0.24761073
0.56142658 0.079539612 0.24186586
0.53817087 0.080576278 0.20733097
0.57142013 0.068323463 0.23624846
0.5420475 0.10138891 0.2291324
0.53925705 0.087655321 0.2237616
0.53697336 0.0033406329 0.21851565
0.57917416 0.042803537 0.24916625
0.56228673 0.075900875 0.20037816
0.54101324 0.085084356 0.23128106
0.4948132 0.041078284 0.24810573
0.49598768 0.068785787 0.24887556
0.56712085 0.075538352 0.24332552
0.5180968 0.010431539 0.25153446
0.58930945 0.053733032 0.24781367
0.58928782 0.040293183 0.24710366
0.52107316 0.0093031665 0.23795837
0.51485956 0.017081177 0.23033209
0.58478951 0.030935355 0.24703519
0.56803292 0.074798897 0.21610434
0.50665551 0.079172455 0.24873158
0.52947432 0.0055200695 0.21879862
0.5360108 0.088267304 0.20757619
0.57365036 0.02630703 0.25247237
0.49915531 0.039305601 0.22475883
0.57782382 0.070077062 0.24643569
0.51712334 0.013482813 0.23561405
0.54984242 0.0060734139 0.24165735
0.51264346 0.015827361 0.25123343
0.54692757 0.086755916 0.21638644
0.50729525 0.021463199 0.20377794
0.5442329 0.090281099 0.23427348
0.53864628 0.087792553 0.23301244
0.52495253 0.076697975 0.24772573
0.50721061 0.017923044 0.24967112
0.53002506 0.081993908 0.23652402
0.58009744 0.026855659 0.25026363
0.57593805 0.058232173 0.24070545
0.58574104 0.046709631 0.24877487
0.58263397 0.053691413 0.24964575
0.54934132 0.0044730408 0.20728905
0.52328932 0.087873101 0.24513213
0.52220953 0.0085483911 0.24051774
0.55830729 0.079074517 0.20464461
0.55293357 0.085202798 0.23335969
0.55528343 0.088202223 0.24902098
0.5002194 0.044137865 0.24844328
0.54050034 0.098857194 0.23147303
0.56886452 0.075873002 0.24992488
0.51657081 0.075912394 0.24675044
0.51050997 0.074619137 0.24524426
0.55272263 0.085451186 0.23478365
0.57518595 0.035488822 0.25059572
0.57044315 0.013417912 0.24615151
0.54294151 0.0021934949 0.22690268
0.54776651 0.084834196 0.20594123
0.54708797 0.0010579069 0.22842121
0.52334917 0.079515815 0.23534204
0.57205313 0.016293447 0.22233135
0.53643274 0.0029015571 0.225408
0.54942846 0.085528508 0.23546867
0.57249326 0.062552437 0.23391977
0.58609587 0.03429611 0.24953401
0.50665909 0.024369502 0.23401393
0.55511576 0.081713729 0.19540043
0.54220837 0.010839016 0.25260103
0.5663718 0.012403081 0.22733712
0.56036019 0.081092551 0.2410852
0.52674907 0.078143053 0.24727127
0.5227809 0.086590186 0.22089525
0.50963688 0.065413915 0.24000528
0.54172987 0.081030473 0.19490434
0.57215679 0.079339512 0.24575667
0.52269799 0.08974883 0.25026062
0.50781733 0.021948649 0.20847851
0.56972611 0.068690926 0.21665448
0.5302828 0.0095068933 0.22490306
0.57480097 0.022613738 0.25115907
0.51386386 0.07009317 0.1912871
0.5467146 0.08508832 0.20150194
0.54294193 0.087203473 0.2186377
0.53620565 0.085285336 0.23592117
0.58562118 0.054634824 0.24901195
0.50507206 0.027088841 0.23923017
0.58069617 0.042969305 0.24986967
0.50512165 0.030269653 0.24366845
0.52596724 0.0070986967 0.22967234
0.53543365 0.085229345 0.23621282
0.5832001 0.053055771 0.24982338
0.52926248 0.087926984 0.19693051
0.53935248 0.0036346007 0.22094992
0.54234374 0.089175068 0.24143451
0.51284039 0.06918259 0.23099232
0.51625842 0.01433742 0.20333363
0.57120395 0.065440476 0.22046521
0.58271438 0.048898444 0.24889596
0.58062768 0.023558063 0.24803118
0.57154971 0.066062644 0.22787981
0.51309997 0.066664338 0.18827608
0.5216977 0.078728884 0.24777927
0.51811361 0.0081198858 0.24638236
0.5080272 0.021254102 0.24584126
0.58754909 0.039240438 0.24945818
0.51256508 0.018035546 0.24220119
0.50977463 0.06304647 0.21236788
0.57736307 0.052938253 0.21048509
0.52534014 0.081612222 0.24557979
0.57704902 0.020291561 0.24740472
0.55568546 0.085043803 0.2441981
0.54871804 0.0022054771 0.22568741
0.50793725 0.021785587 0.19759102
0.53054112 0.080423988 0.24795407
0.53164011 0.086069986 0.24454868
0.52425081 0.088060856 0.24443322
0.53426683 0.082520522 0.21887495
0.53162825 0.081663013 0.21697663
0.54892081 0.087865487 0.24264695
0.53723335 0.087967724 0.21342754
0.57229131 0.064537793 0.23663041
0.52008158 0.013633884 0.22246927
0.54987776 0.00075810944 0.22742137
0.4992986 0.042717721 0.24796669
0.54690582 0.083579682 0.2154319
0.50572985 0.02777186 0.24506082
0.51141071 0.019853713 0.22917174
0.53854996 -0.00018581311 0.19087379
0.49483731 0.038710963 0.24772553
0.57203799 0.064406313 0.21338032
0.55187941 0.084160015 0.19411348
0.5850209 0.046345599 0.24885696
0.51257652 0.00820034 0.24998134
0.581604 0.025347667 0.24974425
0.51786786 0.076304644 0.24441111
0.55276245 0.083925545 0.23184089
0.56703347 0.075983249 0.24496084
0.54869765 0.089129932 0.24481417
0.55708754 0.0047972444 0.24330653
0.54284936 0.0040021269 0.22192326
0.50229794 0.049199674 0.25018349
0.5785284 0.062605835 0.25344822
0.55631745 0.0065044612 0.21554001
0.55581218 0.082101226 0.20689204
0.54537451 0.0010448889 0.22661804
0.5428049 0.089456469 0.24438998
0.57720035 0.060653802 0.25129429
0.56707203 0.070807397 0.21272898
0.56063336 0.079988241 0.22958541
0.52197641 0.077874839 0.24822493
0.58563513 0.056233119 0.24839766
0.54577368 0.088730663 0.241595
0.54056036 0.087862939 0.21919911
0.54722261 0.0028059455 0.20467824
0.56175476 0.078943141 0.23347829
0.50574493 0.028359922 0.24466503
0.50516194 0.018729694 0.25129092
0.55046928 0.084342375 0.19821285
0.55900276 0.082885273 0.24032517
0.56867313 0.012219124 0.24360776
0.50064176 0.0500152 0.24935597
0.58429343 0.028554579 0.25028762
0.54578358 0.087298535 0.22294213
0.5626387 0.076238856 0.20758633
0.53979123 0.082896248 0.21054974
0.57516873 0.036825337 0.24209525
0.51745224 0.014766255 0.20970714
0.53697515 0.087225929 0.24424639
0.50828815 0.024163144 0.24780667
0.49432674 0.053679641 0.25037453
0.57585096 0.056876585 0.22070304
0.511307 0.071987137 0.24651454
0.5759989 0.024159094 0.23637819
0.50144625 0.036505479 0.2474883
0.57920539 0.016351797 0.25036058
0.54238939 0.085324705 0.19529127
0.52696186 0.006153929 0.22095342
0.53296375 0.083174221 0.23475847
0.57822573 0.046934936 0.24849024
0.53041148 0.084067494 0.241358
0.5522511 0.087198228 0.24394333
0.53044868 0.0048288144 0.22670244
0.50647449 0.026649795 0.2429361
0.53395343 0.0047661611 0.24880981
0.52502108 0.077887885 0.22368793
0.54759151 0.098879047 0.23223433
0.55725485 0.082884483 0.23126203
0.53560424 0.091492921 0.24900265
0.57186389 0.065557078 0.20465845
0.50850356 0.062871754 0.20159611
0.52272475 0.0061298786 0.2036811
0.49378902 0.042225663 0.24840237
0.56135738 0.0057992274 0.24717857
0.52602321 0.0079650534 0.21633595
0.55407286 0.08425577 0.23327276
0.51906192 0.079872563 0.2456065
0.5776189 0.029033462 0.25139141
0.5765425 0.035727188 0.25094458
0.53085059 0.0042217053 0.24476607
0.51412976 0.075385407 0.24687397
0.55837202 0.0061552189 0.24440357
0.55195224 0.0071165925 0.23393488
0.52059591 0.076334491 0.19598241
0.50392944 0.027993821 0.23251459
0.53076267 0.082499892 0.23776567
0.53261429 0.082559951 0.2469234
0.50385362 0.040056475 0.24410342
0.57861847 0.048873112 0.23930006
0.53283018 0.0041621192 0.23249029
0.58677965 0.035820942 0.24950475
0.55556899 0.086920783 0.24822864
0.54271418 0.0019793075 0.24625032
0.53297204 0.0067881332 0.22182916
0.50219446 0.041620079 0.24632867
0.51194423 0.067376696 0.22778112
0.53369123 0.09342777 0.25075695
0.57231361 0.01647974 0.24598281
0.51191479 0.018542701 0.20816585
0.57076764 0.069271013 0.23795119
0.5310176 0.088402338 0.24155028
0.49417213 0.048118278 0.24889506
0.51066488 0.020962447 0.22417358
0.57773024 0.046869569 0.23734434
0.57477498 0.014112775 0.24865037
0.55003279 0.08359465 0.22656794
0.53202713 0.0047773882 0.22478458
0.52343643 0.07893084 0.23245963
0.52428752 0.0083411755 0.22574966
0.54022449 0.096387751 0.23195243
0.53507596 0.087088205 0.24496384
0.51919687 0.072836153 0.2131111
0.51639247 0.076548323 0.24518204
0.52312183 0.076490089 0.21119155
0.52312452 0.0075056734 0.23444562
0.54503745 0.086950831 0.22363871
0.53555715 0.0036510979 0.24057443
0.56754887 0.013138412 0.23226692
0.58569932 0.05768105 0.24696171
0.55008316 0.086390413 0.23433636
0.5556311 0.082616314 0.2193604
0.577483 0.049569592 0.24868175
0.50410926 0.023771672 0.24845043
0.58567059 0.049115185 0.25009716
0.54067755 0.088065341 0.23159693
0.54729337 0.088431276 0.23948243
0.51630569 0.072442457 0.23276053
0.56818801 0.0709299 0.21612671
0.49947736 0.035436731 0.22072266
0.56224459 0.075813048 0.20706043
0.53885609 0.0017230989 0.24488752
0.53898072 0.0084775379 0.19767471
0.57877338 0.059188973 0.24893832
0.54423702 0.086564451 0.21615389
0.53853953 0.087798737 0.23160566
0.56542087 0.072963327 0.21072523
0.55577189 0.083752379 0.23787569
0.57188374 0.072321184 0.25027934
0.49731842 0.039014641 0.25063631
0.54786497 0.0055142962 0.23219413
0.50560951 0.059621532 0.20083734
0.54787171 0.00036123942 0.24638012
0.54257798 0.087575264 0.21600875
0.56102657 0.080906793 0.23318237
0.51130509 0.018888343 0.19861583
0.57773203 0.044001646 0.24741426
0.54708743 0.083226122 0.24408741
0.5001567 0.053356934 0.24962491
0.53815359 0.096838638 0.23254347
0.50328028 0.027327539 0.21001108
0.54122788 0.081768125 0.20303321
0.52791899 0.0092898076 0.19233243
0.50456125 0.021521516 0.24970067
0.50453484 0.078354642 0.24698895
0.54824585 0.083534263 0.21359421
0.54309595 0.086476184 0.20735218
0.55644637 0.0083590532 0.23030624
0.50992489 0.021487547 0.23093338
0.52103853 0.01224481 0.20841874
0.50783497 0.026948603 0.2421539
0.51185036 0.06861119 0.24724223
0.57865846 0.022288816 0.24933356
0.5504142 0.084321693 0.20563127
0.56436884 0.07891985 0.19153422
0.5459379 0.083990611 0.24407504
0.57185024 0.06751065 0.24535722
0.53118694 0.0092696249 0.2279215
0.53306103 0.00043127174 0.25014761
0.52251762 0.0087265186 0.22625478
0.54064834 6.3709798e-05 0.24840584
0.57896185 0.052699286 0.25178581
0.50204712 0.033132624 0.24818926
0.56833285 0.073096476 0.24082047
0.5435524 0.0040224027 0.23808344
0.50585431 0.017625161 0.25045088
0.57696849 0.062436461 0.24089769
0.55215532 0.087627977 0.24420905
0.54260373 0.086883947 0.2100966
0.54632854 0.091137096 0.24773079
0.54500508 0.086550452 0.21249425
0.52770573 0.0060994634 0.22958712
0.51095647 0.020212971 0.24002443
0.50602263 0.023017943 0.24806495
0.53074378 0.088629961 0.24157117
0.55030495 0.084511913 0.19963005
0.5760929 0.054361165 0.21085295
0.5567798 0.00574025 0.24281442
0.53780317 0.00065259711 0.1906395
0.5733729 0.064540491 0.24669103
0.54595989 0.084591687 0.23984601
0.5788964 0.056497548 0.2518459
0.58761966 0.04471482 0.24801171
0.58667815 0.031304073 0.24521831
0.53282559 0.0039446321 0.2415534
0.55686224 0.080810234 0.19025597
0.57598412 0.056561254 0.24491282
0.58495092 0.053186964 0.2489845
0.51858038 0.011441677 0.25389367
0.54239392 0.084850721 0.23553467
0.53202379 0.082427129 0.23096611
0.54117435 0.087021559 0.23774512
0.51371813 0.069239445 0.2219442
0.4962422 0.037851769 0.24920003
0.56824481 0.073553577 0.2424645
0.52555847 0.0055981996 0.244854
0.51898074 0.088474624 0.24596965
0.57219553 0.063721277 0.23191456
0.57476324 0.056512266 0.23203538
0.55402744 0.005210829 0.2405255
0.55155355 0.085010268 0.22841452
0.57594627 0.05718758 0.23993896
0.51938123 0.075632781 0.19482288
0.53500038 0.088181779 0.20832425
0.54317707 0.090665393 0.24839778
0.49985221 0.035259727 0.22214732
0.55396432 0.084376305 0.20049268
0.53230333 0.079779543 0.24762379
0.55993176 0.081133381 0.24223912
0.55463743 0.0073603564 0.22672723
0.50725555 0.024063567 0.21786119
0.57201934 0.078328736 0.24519894
0.52032131 0.013799965 0.22001271
0.53427643 0.080634013 0.21149859
0.57216716 0.067949302 0.24855907
0.54014218 0.10477998 0.22643192
0.50521702 0.025826445 0.23973031
0.57109588 0.075547948 0.24265005
0.58473706 0.052457497 0.24896593
0.57721597 0.051481299 0.24588735
0.55400908 0.086825244 0.24732026
0.51370275 0.069019355 0.24745025
0.54264635 0.0092410771 0.19885324
0.51159716 0.019171435 0.21116708
0.58468825 0.030168017 0.25032377
0.53572685 0.0030552417 0.22560945
0.56961304 0.073521271 0.24859135
0.50902706 0.086590342 0.25006405
0.53839272 0.088257603 0.23557389
0.57055694 0.079523489 0.24529916
0.52653253 0.078240812 0.20335115
0.53890294 0.087535769 0.20723581
0.54024065 0.0035212541 0.24913254
0.52804172 0.080098912 0.22873877
0.56237191 0.076949857 0.21358004
0.57682157 0.056209497 0.24916489
0.51232004 0.065804258 0.21048452
0.57028025 0.014619209 0.246952
0.53626215 0.083576769 0.22365499
0.55676472 0.086622894 0.2486511
0.5774802 0.053588092 0.21779731
0.56417799 0.01038141 0.23449905
0.53343612 0.091596141 0.2492682
0.52065891 0.088756181 0.24707887
0.5051381 0.026366221 0.22383898
0.54250646 0.088882297 0.23466721
0.57041639 0.067914851 0.22186829
0.50297016 0.082558386 0.24925086
0.53018969 0.001850956 0.24916719
0.55477929 0.0077411211 0.22938858
0.52638859 0.08236552 0.24201864
0.54348493 0.0068280771 0.25032663
0.55573004 0.0068892068 0.21851148
0.56823623 0.07026688 0.20753968
0.55084246 0.002709565 0.2397278
0.53531158 0.078132346 0.20455943
0.52616888 0.0033213873 0.24992079
0.55042517 0.086070277 0.23671436
0.53132141 0.0040432285 0.24340808
0.53663129 -0.00010599424 0.19164506
0.58096075 0.026008433 0.2493833
0.50092596 0.026255397 0.25067595
0.54318702 0.087845333 0.22872064
0.55362648 0.084691949 0.20331679
0.52720028 0.0092660142 0.20411433
0.58291298 0.030565616 0.24884634
0.545632 0.088345997 0.23717318
0.5315522 0.08332637 0.23420212
0.50682193 0.023399146 0.24150893
0.56233233 0.0096136192 0.23232083
0.50589418 0.025747765 0.2373281
0.56262529 0.0092136804 0.23927802
0.5520997 0.083687946 0.1965913
0.50522786 0.024239836 0.24533492
0.56639296 0.07355424 0.22522295
0.54503375 0.086704686 0.23629719
0.54592216 0.090635717 0.23458703
0.5257411 0.085959867 0.2314977
0.52144682 0.004992072 0.24702135
0.5410406 0.010924765 0.25203705
0.55347466 0.082983628 0.22723271
0.53363365 0.082903065 0.23057677
0.51678985 0.072182648 0.22368562
0.51766151 0.0098970253 0.21227911
0.52322853 0.0075670015 0.23690811
0.57436937 0.06889233 0.24822775
0.51397258 0.017513948 0.23017503
0.51668078 0.08145614 0.2455809
0.56074065 0.078669906 0.21513064
0.54420626 0.089240126 0.23497409
0.5772087 0.051589541 0.23513173
0.52600735 0.079433672 0.19558699
0.54797906 0.083803311 0.24332231
0.51033348 0.058963124 0.18973067
0.54856068 0.0010954933 0.24559809
0.5130738 0.016335158 0.20309737
0.56463736 0.0062661264 0.24928229
0.54871291 0.08582823 0.23595315
0.53702688 0.087245882 0.24447361
0.50977516 0.021772396 0.21290027
0.50405788 0.031156374 0.24608611
0.5196808 0.072686017 0.21157081
0.50816005 0.019218864 0.19617626
0.56185466 0.081962921 0.24174456
0.50767767 0.059292648 0.19354123
0.51748323 0.012304565 0.24006113
0.51625234 0.078291476 0.24630304
0.57207704 0.065936498 0.20911476
0.55947745 0.08178401 0.23976742
0.55039448 0.083543703 0.21144874
0.57057333 0.067904904 0.23413074
0.54635417 0.08526706 0.19196266
0.51489556 0.070901267 0.22619358
0.53735811 0.087336145 0.20896658
0.58503795 0.03034113 0.24656838
0.52886057 0.0059483764 0.24918956
0.51319671 0.074781418 0.2476746
0.50372291 0.078722715 0.24817842
0.52791423 0.010869712 0.23411417
0.58862305 0.043340184 0.24883051
0.58234906 0.028247498 0.24877831
0.53553945 0.086279362 0.24178632
0.51545173 0.014159938 0.24480096
0.53767174 0.092166051 0.25060996
0.56070018 0.084267512 0.24363551
0.50681347 0.022687707 0.25045693
0.56112391 0.011446405 0.23589702
0.57880515 0.015501686 0.24982144
0.54004806 0.088112734 0.2353556
0.55986971 0.0088850856 0.22669297
0.57951796 0.051069442 0.219741
0.50682598 0.027168283 0.24244186
0.50499111 0.026412267 0.2305637
0.54363018 0.09374252 0.23351471
0.542364 0.08900588 0.23725875
0.53047502 0.083187938 0.23830616
0.4998447 0.036211397 0.22284561
0.57466692 0.05792737 0.23167405
0.5036363 0.06437353 0.24720643
0.5546841 0.0081150346 0.23463501
0.5598796 0.079834528 0.2236513
0.55214489 0.083796971 0.19534209
0.54250455 0.09248928 0.23355399
0.55778027 0.0037751768 0.24750726
0.57664424 0.054537322 0.22075669
0.52536047 0.078149863 0.21125805
0.53697819 0.088550799 0.23402995
0.53327274 0.08765687 0.24607107
0.55244899 -0.00050503912 0.25008309
0.53286612 0.086085498 0.24279618
0.57712048 0.054552928 0.2142543
0.53883988 0.010485304 0.20043471
0.58643264 0.034356952 0.24718155
0.55378997 0.0035800608 0.24298097
0.53275067 0.082485192 0.22696088
0.55901605 0.079457283 0.22290905
0.54479986 0.082033008 0.19670895
0.58340365 0.058691397 0.24727887
0.53583699 0.088128246 0.20061049
0.50815582 0.022586418 0.24162562
0.50729752 0.023345286 0.20923001
0.50267249 0.029118767 0.21100655
0.53450626 0.0089644343 0.19833851
0.58844328 0.039307449 0.24902973
0.57807684 0.053346507 0.22064736
