# .PCD v0.7 - Point Cloud Data file format
VERSION 0.7
FIELDS x y z
SIZE 4 4 4
TYPE F F F
COUNT 1 1 1
WIDTH 1406
HEIGHT 1
VIEWPOINT 0 0 0 1 0 0 0
POINTS 1406
DATA ascii
0.55511892 0.078783236 0.2148539
0.50921595 -0.035209693 0.19351979
0.58477151 0.037819441 0.22482385
0.5511632 -0.034996551 0.2199486
0.57541239 0.067372404 0.22074346
0.48403418 -0.041700568 0.22137024
0.4970867 -0.053118251 0.22969256
0.57150835 -0.014369199 0.2250917
0.55715179 0.077784628 0.21385553
0.54930133 -0.032826558 0.21166854
0.49339262 0.10955145 0.22201867
0.58879721 0.019062826 0.22404742
0.56593043 0.023707794 0.2003219
0.46802917 0.093084708 0.22061785
0.54625511 0.088796534 0.2216302
0.46993148 -0.031575345 0.21944997
0.47000682 -0.018852042 0.19570829
0.49675718 0.10056666 0.21042538
0.45156494 -0.018734882 0.22446972
0.45869431 0.079381503 0.22025169
0.48258615 -0.033503965 0.2076488
0.57552242 -0.00758396 0.22063819
0.4793936 -0.030655192 0.20713396
0.51634669 0.088409744 0.1903102
0.48518321 0.086208515 0.20328498
0.45511618 -0.016249059 0.21311869
0.52858329 0.10126599 0.22029334
0.55196434 0.081617221 0.21389778
0.53822947 0.096518911 0.21887434
0.58824509 0.0059179678 0.22168133
0.56706309 0.064746723 0.20173389
0.4565171 0.070757233 0.21988408
0.55837554 0.081029728 0.22367564
0.54992533 0.07007283 0.19345278
0.58364362 0.04213006 0.22079043
0.57698107 0.055341452 0.22689232
0.54783076 0.069541015 0.19193573
0.52613842 0.098077193 0.21353251
0.55696255 0.069689155 0.20029186
0.4584136 -0.017225699 0.20980139
0.48499337 0.10433538 0.2217827
0.57555246 0.03047144 0.21995635
0.51700121 -0.049022183 0.22097595
0.51578689 0.096758395 0.22307518
0.49076 0.094407193 0.19859834
0.5725286 0.011494582 0.22328207
0.52813905 0.084809057 0.19427626
0.47327396 0.084483914 0.21347873
0.56644553 0.026262814 0.20113015
0.48910293 -0.039208721 0.20735285
0.47200987 0.083322242 0.19524302
0.53698653 0.078682467 0.1915057
0.53898603 -0.039434996 0.22602434
0.52737606 0.093497023 0.20404777
0.56147349 -0.020737788 0.20862885
0.54264408 0.07676661 0.19177559
0.56332994 -0.025553551 0.21738894
0.53011876 0.100623 0.2192542
0.46968323 0.075179383 0.19936824
0.52033347 -0.052421428 0.23071219
0.50987977 0.093548879 0.1973998
0.57029873 0.071265899 0.21803097
0.52772945 0.096773431 0.21071693
0.51043671 0.094799459 0.21031564
0.46531126 -0.03940817 0.22661966
0.55122298 0.089565232 0.21855386
0.49003699 0.087354824 0.20193666
0.48277068 -0.027027033 0.19436473
0.47904754 0.081551395 0.20179056
0.54177547 0.09135469 0.21696714
0.52440882 0.094675682 0.20467828
0.51487452 0.094526611 0.20952275
0.45039666 0.070648417 0.22513239
0.56294358 0.071521968 0.2204656
0.45537177 -0.026938528 0.23409797
0.56979918 0.068718083 0.21295589
0.57143998 0.039362568 0.20941755
0.54069567 -0.028116819 0.19313861
0.54654169 -0.027810918 0.19679469
0.58261144 0.026213534 0.22872716
0.55713081 0.067469664 0.2021696
0.46420941 0.065010168 0.19872959
0.56974721 0.047640797 0.19267057
0.45265269 0.047663454 0.19861652
0.53278887 0.087058701 0.19949496
0.49786815 -0.038564552 0.20188817
0.57126981 0.055348083 0.21841542
0.50842941 0.090143412 0.19140024
0.57743078 -0.0039527956 0.21868858
0.55849868 0.070704833 0.20399655
0.58502471 0.0026068978 0.22351128
0.46064919 0.084745079 0.21896115
0.48743102 0.10552857 0.22126438
0.56249708 0.056398317 0.20229575
0.57175577 0.017018888 0.20528252
0.57256579 0.073653273 0.21908183
0.55612892 0.065246128 0.19728309
0.5395062 0.095712826 0.21977203
0.4501121 0.07316386 0.22358933
0.57966322 0.06477093 0.22257122
0.49875611 0.095550992 0.20238179
0.55953968 -0.034351416 0.22611496
0.49954915 0.10271128 0.21756861
0.56422973 0.078238443 0.22110395
0.56859213 0.061001271 0.21573429
0.5823096 0.027747558 0.22834335
0.56851602 0.0082821455 0.19148804
0.56645584 0.051492721 0.20757021
0.53439337 -0.035452046 0.19942747
0.52640909 -0.038913667 0.20005266
0.51581645 0.092274956 0.20775391
0.50384337 0.10436252 0.21973892
0.5394845 0.079645075 0.19355729
0.47962263 0.093169965 0.19982859
0.48005679 0.096376106 0.21732
0.53467178 0.086878031 0.20273845
0.51362163 -0.044611767 0.2105906
0.52699113 -0.033308044 0.19354397
0.47559893 -0.039144851 0.22457482
0.5294292 0.084711134 0.19460483
0.48085442 -0.045144524 0.22883736
0.45978108 0.056388814 0.19614802
0.52194923 0.096750416 0.20759648
0.53416163 0.087267317 0.2017398
0.45155397 -0.022640048 0.23416577
0.58468109 0.036138862 0.22470142
0.46897939 -0.029906347 0.2149324
0.57291174 0.062977888 0.22600055
0.56514001 -0.0083584851 0.22497153
0.53411889 -0.037153833 0.20194578
0.51150185 0.10001688 0.22148444
0.5313043 -0.052205138 0.22967893
0.49741676 0.08952383 0.20263536
0.47714943 0.083423622 0.19130814
0.53551596 0.094584994 0.21192873
0.5125972 0.10140491 0.21840678
0.50360644 0.099180467 0.22033359
0.5468176 0.083701573 0.20725729
0.56325668 0.061116718 0.20483184
0.48770744 0.10228575 0.22037351
0.51912564 -0.04086424 0.20447201
0.4618409 -0.029240021 0.22720656
0.57313901 0.071897775 0.21999782
0.51197386 0.10289498 0.21957734
0.50379241 0.1015733 0.21494554
0.58607697 0.00050729938 0.22178853
0.47245562 -0.038552728 0.2247456
0.47174516 0.090502173 0.21810661
0.46486264 -0.033041857 0.22602329
0.52146655 -0.03633792 0.19664858
0.54156077 0.095366001 0.22118352
0.51140505 0.09096583 0.20010465
0.5308001 -0.043871384 0.21928295
0.5649848 0.013945919 0.19937932
0.55639863 0.074614927 0.20840336
0.51950842 0.1000565 0.21840486
0.45271888 0.048342429 0.19639544
0.47593415 -0.041679572 0.22610889
0.54182374 -0.036672093 0.22675784
0.54913813 -0.03473467 0.21554954
0.49426028 0.088387325 0.18926595
0.52630454 -0.052965149 0.22978158
0.56146151 -0.012083513 0.19526158
0.58842003 0.033334959 0.22367801
0.57383502 0.048589148 0.21886627
0.56941706 0.05662008 0.19827981
0.51682812 -0.051803242 0.22926067
0.54593194 0.081731401 0.20605622
0.51251274 0.097013369 0.2145226
0.55350959 0.077711552 0.20787951
0.45445585 -0.011782935 0.2091718
0.50395554 0.095549554 0.2024647
0.55218655 0.071307696 0.19828583
0.544245 -0.030024897 0.19669907
0.47648767 -0.037240308 0.21656302
0.50520128 -0.045043901 0.22799353
0.5108434 -0.037099686 0.19661978
0.46535084 -0.033398367 0.22517179
0.48037529 0.10393089 0.2217124
0.5721029 0.06124074 0.22456519
0.45613888 0.07680773 0.20899101
0.53383881 0.081422657 0.19454558
0.57228571 0.052250326 0.21938248
0.56835896 0.071345314 0.22730434
0.56606925 0.065938845 0.21396205
0.48178276 -0.028340342 0.19693232
0.4693028 0.080814153 0.19464634
0.56433094 0.0015365791 0.20205502
0.48178345 -0.032970294 0.20764023
0.48148918 0.10002889 0.22078474
0.58919239 0.020454904 0.22423001
0.56514233 -0.015634209 0.20622224
0.54709834 -0.033736859 0.21066956
0.55738699 0.084407203 0.22563739
0.45319778 0.058874924 0.20242494
0.45046663 0.044068594 0.19723067
0.5782969 0.067889497 0.22255805
0.51581544 -0.051170345 0.22491175
0.515185 0.097715765 0.2226999
0.5898087 0.036150858 0.22249132
0.49837381 0.098473258 0.20704079
0.57152629 0.0034004336 0.22489364
0.50866646 0.10465706 0.22254583
0.45848468 -0.0086155199 0.19770151
0.58371145 0.012921116 0.22138053
0.45836097 0.086540833 0.22101992
0.54802901 0.06975507 0.19220014
0.52138436 -0.048636161 0.22648108
0.47818139 -0.040247045 0.22785698
0.45040488 -0.021462739 0.22545207
0.54883677 0.084769554 0.2178831
0.45073327 -0.012197059 0.21486625
0.55670375 0.073243678 0.20755526
0.45715502 0.077152066 0.22078714
0.48781559 0.081441514 0.19429287
0.55779463 0.071403623 0.20223001
0.5561412 0.083617605 0.2243858
0.48802733 0.087578632 0.19209184
0.51551139 0.086937442 0.19591917
0.58542109 0.038240083 0.22426642
0.55371583 0.080739379 0.21283649
0.57782114 0.040520467 0.22588269
0.58800429 0.0032671841 0.22141257
0.56540096 0.064658433 0.21265833
0.55250388 -0.031407144 0.21444885
0.51960993 0.091371931 0.20809336
0.56948829 0.0074095377 0.22269653
0.51884311 0.091495231 0.19528139
0.58542699 0.025333339 0.22389138
0.49989313 0.10011375 0.20906717
0.5561915 0.078780808 0.21678185
0.46914595 0.096730337 0.22255398
0.45113876 0.076539472 0.21423143
0.56742537 0.037581816 0.19782482
0.45065632 0.045208428 0.19982532
0.58263189 0.029448314 0.22841763
0.54827523 0.083481193 0.22428147
0.49521324 0.087730348 0.19998282
0.58039749 0.0056339381 0.21743718
0.48013428 -0.027981689 0.19740285
0.49965125 0.097720295 0.21539818
0.52444661 -0.042698998 0.21231845
0.46984959 -0.021443389 0.19876517
0.58887064 0.028374579 0.22422066
0.55324596 -0.018812375 0.19432753
0.5194152 0.091147989 0.19397846
0.57245559 0.023768451 0.20793158
0.49413064 0.085431904 0.1977946
0.51742035 0.098993912 0.21739343
0.57204348 0.0029704201 0.22485399
0.49045992 -0.034339771 0.19972518
0.53103304 -0.042938311 0.21729136
0.45604861 0.078237481 0.22191489
0.50233942 0.095972508 0.21319996
0.58875233 0.015671134 0.22243072
0.58268327 0.043612409 0.22188567
0.56151795 0.060300689 0.20058842
0.5578689 -0.026211014 0.21252643
0.50631899 0.095839262 0.21392988
0.5205754 -0.048331264 0.22153123
0.5547238 0.080512643 0.21862572
0.45521826 0.063663036 0.20343012
0.45434049 0.057154354 0.20107977
0.57075894 0.0023127436 0.22232513
0.47298685 0.094794489 0.21912609
0.508591 0.10675747 0.22676307
0.51908851 0.094616272 0.20177791
0.51769722 -0.041972443 0.207093
0.51177835 0.090599619 0.19972415
0.52640098 -0.042737331 0.2140522
0.56234241 0.019515585 0.19259401
0.45822144 0.091988958 0.21860486
0.55532891 0.071209289 0.20396188
0.57234246 0.0050419993 0.19581129
0.53861386 -0.039766211 0.22597951
0.52298385 0.10059814 0.21911457
0.51604909 -0.043729492 0.20896401
0.4583936 0.071241491 0.21168604
0.50921321 0.10384617 0.22132084
0.57368618 0.075698763 0.22303669
0.4691411 -0.031049864 0.21944152
0.54141146 0.081549473 0.19870499
0.45215702 0.058495611 0.20567074
0.52519447 0.092619441 0.19952111
0.46631274 -0.034384493 0.22489685
0.47038978 0.085293591 0.21892178
0.55451196 -0.0010261224 0.19353805
0.48758963 0.09316095 0.19868413
0.45350349 0.068727389 0.21719465
0.57045186 -0.0025114247 0.19780219
0.51977378 0.10502848 0.22132182
0.55130953 0.077719055 0.20525408
0.45728856 0.049679514 0.19529088
0.56818169 0.051642757 0.19452406
0.58017302 0.02298118 0.22774021
0.55580229 -0.033160575 0.22183624
0.58273065 0.043317143 0.22333467
0.57653505 0.062764689 0.22331169
0.57358301 0.069413655 0.21925141
0.49189994 -0.042691391 0.21992192
0.52608311 0.094777934 0.20565268
0.47501957 -0.036924593 0.22080608
0.51499468 0.087913252 0.19057173
0.4929778 0.099443853 0.22424024
0.45691487 -0.024285801 0.226864
0.5675481 0.066004097 0.22021958
0.52804005 0.082321405 0.18938771
0.55583835 0.061489832 0.19300115
0.5206272 0.089006796 0.19304907
0.4550204 0.067074858 0.1971463
0.58288443 0.010666518 0.22068061
0.57786375 -0.0030877457 0.21920381
0.55013794 0.086659282 0.22205342
0.45259488 0.074222885 0.20788832
0.49522993 0.090784989 0.20805937
0.45349932 -0.0042226794 0.20262554
0.50839663 0.094782002 0.19751351
0.58504421 -0.0031041084 0.22126852
0.58824128 0.0060221376 0.22400236
0.5041706 -0.048700437 0.2249994
0.46726996 0.081858024 0.19838676
0.54922825 0.084628247 0.22311281
0.50831312 0.095210597 0.21270609
0.46356007 -0.031700969 0.22631347
0.49964872 0.10230374 0.21461362
0.57052708 -0.0013055502 0.2249458
0.52165353 0.097929105 0.20966145
0.4542557 0.010825662 0.19301662
0.54600781 0.08624804 0.20870173
0.52753836 0.09959092 0.21946275
0.57195073 0.038547412 0.21179786
0.45244619 0.07885173 0.21528599
0.56195039 0.065906726 0.20766538
0.55136353 0.07500603 0.20057325
0.46640417 -0.037680861 0.22533931
0.56809825 0.062469013 0.20115444
0.57528055 0.0010983736 0.22791815
0.58676302 0.037615467 0.2217031
0.51777047 0.10339811 0.22108944
0.46040183 -0.03121148 0.22633286
0.57010305 -0.0024653045 0.22521608
0.45227146 -0.0010604856 0.20428532
0.57196081 0.0021582793 0.22556412
0.58432889 0.057050589 0.220879
0.56561661 0.044864357 0.19952036
0.54692936 0.091087759 0.21982379
0.58255476 0.0034557257 0.22177428
0.45544112 -0.022286069 0.2244056
0.54012764 -0.040163033 0.22173907
0.45543793 -0.02560249 0.23063736
0.55325955 -0.040837184 0.22673649
0.56142694 0.069088191 0.20177701
0.48500136 0.10328124 0.22100906
0.54464513 0.073074736 0.19147931
0.47618303 0.095145732 0.20485528
0.5023855 0.10112582 0.22005354
0.57264811 0.028388474 0.21685979
0.45886797 -0.017270979 0.2083624
0.56872565 0.051528107 0.19546941
0.52813888 0.094205976 0.21120173
0.58316803 0.0085222628 0.22197835
0.48778048 -0.031526111 0.19773935
0.53475344 0.096950784 0.21630746
0.50188762 -0.038448304 0.20390652
0.50409913 0.092219532 0.20768262
0.54926378 0.088970594 0.22464363
0.52530962 -0.041172091 0.20584153
0.46537131 -0.03676768 0.22508654
0.45109588 0.0012408077 0.20454058
0.50417006 0.10198102 0.21544917
0.56019312 0.078303695 0.21911213
0.50200188 -0.046531372 0.22322102
0.48553944 -0.033269238 0.20112966
0.5749957 -0.0010845431 0.22886197
0.54099041 0.090975799 0.21085064
0.46244636 -0.014542445 0.19992381
0.49295425 -0.038217191 0.20376857
0.56970197 0.068002149 0.21256074
0.46101052 0.066223077 0.203122
0.46957904 0.092004083 0.21388327
0.56206959 -0.024262454 0.22647849
0.51797354 0.098950073 0.21250057
0.57032681 0.0085791312 0.22265607
0.54683232 0.088476859 0.21620461
0.56820005 0.013709344 0.20093106
0.5595125 -0.02457268 0.21200979
0.46486813 -0.021441313 0.20854634
0.47427651 -0.032107141 0.21284053
0.58844143 0.034221373 0.22266139
0.53653878 -0.042223223 0.22082269
0.54007679 -0.042157404 0.2230812
0.46392411 0.083670624 0.22216655
0.4530775 -0.014828208 0.21560134
0.52085447 0.10091611 0.21836095
0.49874979 0.091227621 0.20560031
0.4701741 0.075874969 0.20082954
0.46907008 0.067550637 0.18986481
0.56101525 0.010035906 0.19707023
0.56603855 0.026752951 0.19991951
0.4588075 0.079304278 0.20820464
0.56503361 -0.0053792368 0.19438453
0.56634945 -0.008380753 0.19962807
0.49788237 -0.052943349 0.22923505
0.57977211 0.050291698 0.21868299
0.461119 0.095956072 0.22038053
0.55023557 0.087797508 0.22429971
0.58713394 0.033331949 0.22423233
0.53208417 0.092153974 0.21077722
0.53116041 0.096520983 0.21237275
0.54089451 -0.034173839 0.22810258
0.54939157 0.083060019 0.20816584
0.55815762 -0.025057696 0.22649895
0.45682362 -0.029366665 0.22573204
0.51046646 0.096372701 0.22434162
0.53347951 0.087173462 0.20342115
0.5160436 0.10460783 0.22240885
0.56036711 -0.024404481 0.21280527
0.56570083 -0.011848919 0.20475034
0.58885264 0.036358867 0.22276422
0.4741669 -0.035675146 0.221619
0.53088975 0.096421883 0.22063331
0.45711496 0.071148731 0.21216868
0.55833399 -0.034163177 0.22523426
0.49364349 -0.04204382 0.21364897
0.56855983 0.039914776 0.20015562
0.50952071 0.10003026 0.21886659
0.47583947 0.082009174 0.18956098
0.4932923 0.10071153 0.21814884
0.57123035 0.012427358 0.2029658
0.53836209 -0.049806055 0.22888115
0.5780378 0.029315652 0.2231455
0.46789971 0.065354809 0.19054729
0.58326161 0.013842338 0.2223873
0.53569174 -0.040813982 0.21643196
0.47259921 -0.034276262 0.22136618
0.49748772 0.084240265 0.19440858
0.46728531 -0.035929345 0.22601655
0.51942384 0.09000735 0.19314133
0.55109417 0.075819008 0.20238243
0.53468663 -0.036937907 0.20283289
0.58590555 0.021716665 0.22353242
0.58559716 0.007780097 0.22397412
0.56636608 -0.021532349 0.21851835
0.55525249 0.068284184 0.20176221
0.55410892 0.093432747 0.21969301
0.4898985 -0.040506676 0.21169199
0.46409762 0.082085475 0.20497441
0.48406595 0.10741473 0.22220345
0.50471407 0.092257738 0.20495749
0.55142409 -0.034442361 0.21819584
0.50831193 0.09298984 0.19614546
0.56363791 -0.023834398 0.2262826
0.46455708 0.079996869 0.19961825
0.54906636 0.079113916 0.20687366
0.52029037 0.098507486 0.21071018
0.49105069 -0.032964844 0.19728737
0.46428284 -0.028242424 0.22221714
0.51327318 0.10030249 0.21745017
0.58136237 0.033428688 0.22796582
0.50478941 0.095725469 0.22338666
0.45672306 0.072645605 0.22109321
0.46763313 0.082250163 0.19887114
0.5829879 -0.0045093196 0.2255874
0.48814943 0.094866924 0.20024365
0.48189145 0.083984256 0.20331798
0.57821041 -0.0031631798 0.21910484
0.45750639 -0.020957459 0.21266149
0.4845843 0.086345755 0.19068725
0.4740814 0.087495908 0.2162177
0.49044156 -0.035061181 0.20021065
0.52861255 0.087279238 0.19606155
0.53047448 0.090866774 0.20106259
0.54023045 -0.030807046 0.19511938
0.53929442 0.07828337 0.19245031
0.47712004 -0.028115898 0.20006005
0.58339202 0.035855517 0.2254426
0.46622616 0.083197095 0.20152223
0.57408124 -0.01724364 0.22225574
0.55966544 0.071335256 0.20909086
0.55578631 0.079017922 0.21267775
0.53529203 0.085395321 0.20157367
0.50634307 0.10095119 0.22076747
0.52873439 0.099391006 0.21908742
0.54515994 -0.04431871 0.2274244
0.47655088 -0.034760129 0.21489395
0.54197627 0.09090326 0.21132644
0.46680361 0.089527354 0.21056534
0.48640001 0.10708836 0.2218619
0.52068025 0.099637307 0.21446098
0.53572983 0.081739523 0.19579472
0.54729539 0.08671958 0.21847643
0.54485327 -0.041607462 0.22576122
0.54280221 -0.02895925 0.19406551
0.56937456 0.069885552 0.21509068
0.47122276 -0.031138819 0.21733257
0.55025417 -0.031408697 0.22839929
0.57729912 0.062088575 0.22068948
0.4711262 0.08436776 0.21988584
0.52170485 0.092470102 0.20912354
0.45540917 0.073528372 0.21931578
0.54498607 0.09435261 0.22631872
0.52503109 0.099112526 0.21776353
0.57586765 0.0098062493 0.22518271
0.57412994 0.048585955 0.22172995
0.54382867 -0.034101337 0.20721965
0.45176736 0.044429839 0.19858973
0.56387997 0.0052556428 0.20184979
0.48313034 0.090246074 0.19549264
0.58028656 -0.005845299 0.22409382
0.57716709 0.055542316 0.22714044
0.51053846 0.085106634 0.19316711
0.45539051 0.077628434 0.21054867
0.58413458 0.025901929 0.22407
0.45420375 0.0073791989 0.19404669
0.49054167 0.090444863 0.209829
0.46794167 0.067140512 0.19062093
0.57035977 0.07195884 0.22115099
0.51530635 0.090921871 0.1943132
0.49331036 -0.045083892 0.2221739
0.54838216 0.075902425 0.19692636
0.45857874 -0.023043478 0.21612965
0.57596684 0.064797334 0.22221009
0.58388382 0.0015915832 0.22337383
0.53567499 0.10405002 0.22170678
0.55510336 0.074885488 0.2054859
0.53359133 0.093331166 0.2133479
0.5612874 0.014016593 0.19609246
0.57984865 0.02800329 0.2258569
0.57282311 0.043577466 0.21327063
0.56297731 0.070997216 0.21874264
0.54735518 -0.026610546 0.19565067
0.50158554 -0.037568998 0.19963259
0.57451707 0.046846174 0.22065389
0.4672955 0.092032686 0.21673988
0.50794363 0.089048751 0.19033159
0.46077642 0.091197662 0.21939269
0.56044912 -0.031579111 0.22516289
0.45098791 0.014662359 0.19652073
0.48736602 0.096467055 0.20235777
0.50718111 -0.04567875 0.21406296
0.57095414 0.026073828 0.20611908
0.57484567 -0.01769218 0.22634681
0.564026 0.057536263 0.20531027
0.52895284 0.094059251 0.20530926
0.56112283 -0.02391511 0.21215676
0.45505074 0.05847178 0.20189604
0.46550909 0.088935323 0.2121411
0.48609883 0.090746738 0.22197112
0.57143569 0.024266195 0.20775132
0.45985183 -0.027070476 0.22773969
0.56728095 0.0066605252 0.19181816
0.57485563 0.051527321 0.22429022
0.47919127 0.087659664 0.21291827
0.55857819 0.080807172 0.21882905
0.56615657 -0.013225936 0.22734064
0.49832872 -0.05095239 0.22772531
0.58667308 0.036953129 0.22133754
0.56478465 -0.018800819 0.20974609
0.45588455 0.073951416 0.21937305
0.55820119 0.07861907 0.22180304
0.4704181 -0.027304253 0.21004416
0.49969068 -0.045068964 0.21942388
0.46306509 -0.03328266 0.22444835
0.49510023 0.09391512 0.22237705
0.49259698 0.095443293 0.21823011
0.51209676 0.084031262 0.19185492
0.47611263 0.096254148 0.2206966
0.56941646 -0.0094263842 0.20664625
0.46023703 -0.027425824 0.22423051
0.57910389 0.063361861 0.22194868
0.53710932 0.091770165 0.21070693
0.54829031 0.083635315 0.21742254
0.45224652 0.05717659 0.20446536
0.58628857 0.035751391 0.22201212
0.53802657 -0.04806187 0.22787057
0.53920621 -0.035251472 0.22775473
0.46013942 -0.029114829 0.2263854
0.47109264 0.092965819 0.21405186
0.45384428 0.0092479708 0.19296391
0.50409836 0.085517824 0.19239944
0.51250041 0.089233592 0.19020689
0.45369425 0.061607912 0.2065544
0.58544517 -0.0052116816 0.22754477
0.51248777 0.097558759 0.2161099
0.57120907 0.034335118 0.20152189
0.47700644 0.087108806 0.21350396
0.46175134 -0.012134803 0.19735457
0.58567578 0.014017478 0.22147605
0.46140149 -0.015969802 0.20513904
0.57460582 0.0051516336 0.19604056
0.51761353 0.094708152 0.22364798
0.4526273 0.007439306 0.19765203
0.45293051 0.044852596 0.19781032
0.48361495 -0.041564897 0.22844793
0.4639608 0.084310159 0.20925039
0.49623993 0.10505091 0.22022612
0.49467713 0.09697476 0.20259628
0.46541634 0.089352041 0.21239883
0.48919934 0.099156149 0.20938809
0.45309865 0.070777103 0.22261293
0.54583102 0.069688156 0.19097061
0.51220602 -0.047767386 0.2171092
0.58119184 0.03934148 0.21763638
0.45553541 0.041999474 0.19475885
0.47986653 -0.035823699 0.21290021
0.47350067 0.074119337 0.19462372
0.56944084 -0.0084675523 0.20600098
0.48711109 -0.042352874 0.22175448
0.51764482 0.096013777 0.21299422
0.58844471 0.010243079 0.22494225
0.45130625 0.05910534 0.20977041
0.57743418 0.01711398 0.22600138
0.54507059 -0.036469754 0.21971893
0.48273879 0.092258021 0.19812103
0.46670401 0.094330832 0.22217979
0.46624553 -0.020917622 0.20506038
0.47745821 0.093290552 0.2201764
0.55671376 0.070777081 0.20105952
0.51930845 0.093063891 0.21049571
0.54797703 0.076618165 0.19723701
0.5645923 -0.026695639 0.22015059
0.58319438 -0.0019987074 0.22272192
0.50654256 -0.048522308 0.2238628
0.51061779 0.10202896 0.21962157
0.49221832 -0.039907966 0.20775163
0.53388852 0.099521719 0.21823835
0.5403496 -0.039031856 0.22569497
0.49818271 0.10257387 0.21808736
0.47487238 0.083145954 0.20825605
0.46744761 -0.018375449 0.19776572
0.52810866 0.086778805 0.19797811
0.489916 0.085922219 0.19987044
0.57121682 0.045875531 0.21004261
0.46116933 0.069774032 0.20339896
0.4818058 0.090155534 0.1960685
0.53686881 0.080098741 0.19270404
0.50133687 -0.034839153 0.19411057
0.51931626 0.087186739 0.18964815
0.54996902 0.080764093 0.21123198
0.50719005 -0.045328088 0.21382698
0.52188265 0.10397168 0.22372061
0.52490169 0.088604905 0.19369362
0.58574587 0.038450405 0.22398771
0.52567255 -0.04752513 0.22390391
0.56706399 0.065408938 0.21681277
0.51209879 0.098781452 0.22204594
0.47630256 0.087851837 0.19682904
0.45334783 0.0706589 0.21843693
0.4689081 0.092878215 0.2195835
0.5549801 -0.027613033 0.2121475
0.54342288 -0.032992855 0.20283854
0.57051641 0.011346006 0.18987444
0.47652814 0.087317474 0.2219824
0.56182033 0.0043764175 0.19874124
0.53765947 -0.035160869 0.20165357
0.51167548 -0.036560822 0.19590569
0.5685088 0.046148799 0.20743646
0.47344738 -0.021993812 0.19376287
0.55852664 0.075657092 0.21843801
0.54528123 -0.032374877 0.20417903
0.5488382 -0.043312512 0.2277263
0.58831614 0.0022239874 0.22189015
0.45384419 0.047238484 0.19524844
0.46656737 -0.030496366 0.22400199
0.5143311 0.10386025 0.2209377
0.4932127 -0.043984938 0.22276218
0.45417979 -0.0080891121 0.2055711
0.57303756 0.032995336 0.21099178
0.57247359 0.0096576139 0.22325072
0.48170194 0.097969279 0.21802516
0.45696846 0.095047168 0.21748132
0.52438331 0.09306246 0.19805872
0.55670571 0.071558863 0.20495908
0.54492086 0.092170589 0.21869572
0.54408628 0.09751039 0.22266951
0.50349796 -0.039156768 0.20368396
0.58430338 -0.00024306845 0.22207926
0.50331765 0.093913794 0.19685353
0.58461612 0.042346798 0.22316729
0.56205904 0.071109042 0.21562445
0.49992627 -0.038290594 0.2008229
0.47890139 0.080098979 0.19972283
0.45623171 -0.025092179 0.22725596
0.45571738 -0.022946481 0.2238868
0.57081711 -0.014518253 0.22215419
0.53360236 0.093377262 0.22148393
0.56210208 0.039860684 0.19258697
0.48708993 -0.039181236 0.21202074
0.47658804 0.082817428 0.19055936
0.56280941 -0.0079967892 0.22398715
0.5791142 0.055752281 0.21979779
0.56191647 0.070379585 0.21094806
0.51491839 0.093681194 0.20155656
0.57008398 0.044652358 0.20853172
0.52927589 0.093526505 0.21030836
0.5725469 0.049609154 0.21486591
0.54129857 0.086968906 0.20535147
0.53110194 -0.035015982 0.19673079
0.47619325 -0.032900941 0.21381673
0.56860042 0.059902281 0.21492773
0.53752923 0.087472975 0.20369968
0.55820435 -0.026506985 0.22680831
0.488166 0.098584682 0.20841154
0.48291922 0.093779571 0.20069458
0.57539433 0.036156654 0.22000545
0.4830457 0.087728538 0.21009046
0.4629322 -0.029631579 0.22750352
0.57974446 0.053885881 0.21963963
0.46307218 -0.016987674 0.20382154
0.4562791 0.052648012 0.19627263
0.52328253 -0.042123731 0.20988983
0.51065141 -0.053747602 0.22937897
0.57028002 0.069026425 0.22662447
0.5396024 0.09492109 0.22114
0.51270437 0.092052713 0.20146343
0.48141396 -0.042495638 0.22556956
0.55089408 0.084076062 0.22148909
0.5503608 0.083900303 0.21336782
0.58559692 0.048000894 0.22105412
0.49988171 -0.036752336 0.19727597
0.48026797 0.095606856 0.21998394
0.5094772 0.088630117 0.18949223
0.51909983 0.10483354 0.22286253
0.46540239 -0.032459047 0.22674319
0.50856525 0.10144479 0.21335171
0.56512016 0.070563443 0.22228073
0.48094285 -0.041041464 0.22098766
0.51588333 0.099340007 0.22005083
0.52399004 -0.044905685 0.21907084
0.46114558 -0.014696824 0.20185854
0.54656732 0.088376664 0.21328071
0.54530209 0.091211759 0.22080892
0.56668627 0.022372555 0.19974233
0.46374908 -0.035524201 0.2259932
0.49922436 0.10210469 0.21559271
0.58711964 0.032769434 0.22461088
0.50288093 0.0956975 0.22295095
0.46405321 0.083894752 0.20899346
0.51443911 -0.051577248 0.22524421
0.55332112 0.073049441 0.20288806
0.51958299 0.095934868 0.21337347
0.56305438 -0.015652778 0.22794561
0.56657225 0.011297332 0.20098473
0.45644569 0.047129013 0.19479363
0.56487548 0.044531763 0.19752316
0.56154418 -0.012796924 0.19697221
0.57341677 0.062659383 0.22631754
0.45535079 -0.027253833 0.23558955
0.55913675 0.062813275 0.19981028
0.55918568 0.0037268458 0.19413967
0.56844938 0.03549188 0.19818617
0.58863372 0.030437673 0.22423047
0.53224558 -0.045333076 0.22472526
0.56058371 0.071558118 0.20612629
0.49482262 0.095677935 0.22132927
0.48040119 0.097315632 0.22202404
0.47687411 0.087828025 0.22149581
0.56968111 0.060142562 0.21974683
0.56977743 0.011183568 0.19029936
0.54877549 0.085825451 0.21935275
0.4957673 0.092560716 0.19450882
0.55532396 0.063801289 0.19443078
0.54021543 0.097993284 0.22086219
0.56380653 -0.0065016183 0.22291824
0.46405506 -0.02780718 0.21820527
0.56729573 0.054988932 0.19569151
0.51176232 0.10273889 0.21873097
0.55045491 0.07689178 0.20147702
0.57176715 0.012167821 0.20441635
0.54684341 -0.035568692 0.21708719
0.45505431 -0.025171937 0.23051707
0.47499782 -0.026260594 0.20101713
0.45468968 0.00077065325 0.19769816
0.46587864 0.072503768 0.19934253
0.58496934 0.028267469 0.22174297
0.47415015 -0.027164282 0.20197941
0.56699514 0.056940835 0.1957628
0.51593864 0.086968437 0.19575791
0.53321558 0.091477886 0.20988829
0.47567913 0.085777462 0.1963173
0.51431835 0.095294453 0.20242493
0.56188446 0.0066408799 0.19773917
0.48205 -0.040916272 0.22170316
0.48199287 0.096829928 0.21970733
0.47956055 0.097077072 0.2209886
0.53507429 -0.046221547 0.22537243
0.47701815 0.099208191 0.22048622
0.47026339 0.080672957 0.20993751
0.48120919 0.095427394 0.20234637
0.46698073 -0.034287114 0.22624154
0.58836508 0.015326505 0.22238407
0.45263565 0.04699501 0.19906636
0.48094523 0.08729244 0.22264968
0.45403132 0.066706419 0.19363569
0.5818761 -0.013632187 0.22700895
0.5576064 -0.020892054 0.20020093
0.57153219 -0.0014099536 0.22676222
0.56271434 0.0053417655 0.19993366
0.5084452 0.094605796 0.19876337
0.50475591 -0.047130555 0.22243491
0.49421814 0.10687411 0.22183992
0.57556885 -0.016921185 0.2255258
0.55204254 0.081759125 0.21269064
0.53072935 -0.040877212 0.21350957
0.5272972 0.089047283 0.20219128
0.50537157 0.092311844 0.20720232
0.46152094 -0.0076318467 0.19319859
0.48625585 0.092822298 0.19771808
0.55547458 -0.020731553 0.19846252
0.53254157 -0.043186337 0.2193554
0.52243018 0.090806998 0.20656003
0.49629539 -0.040076941 0.20611252
0.52042592 -0.04564226 0.2159937
0.53045166 0.08145611 0.19004399
0.57553023 -0.0072771339 0.2204317
0.53412956 -0.041493349 0.21755262
0.5879178 0.02188552 0.22383031
0.46718845 0.066803649 0.19244131
0.58050102 -0.0017066357 0.22097841
0.50342727 0.10116792 0.21174265
0.49936515 -0.051472954 0.22889866
0.56270319 0.050009925 0.20039961
0.49031118 -0.048601381 0.22706448
0.46201965 0.088577874 0.22196274
0.53758043 0.08420518 0.19996172
0.52085382 -0.044037834 0.21220006
0.5605759 0.072854824 0.21747029
0.56806284 0.042148098 0.20153692
0.53543508 0.089214101 0.20386022
0.57196349 -0.01586673 0.2239875
0.58037782 -0.0065428065 0.22423296
0.55883074 0.064188428 0.20066081
0.50247908 0.093251504 0.19456068
0.52574956 0.10171812 0.22277987
0.45379427 0.050001223 0.19695252
0.47503683 0.088142969 0.21496445
0.55233508 0.095276475 0.21907502
0.5567643 0.071149409 0.20126502
0.58123761 0.039678391 0.21782233
0.4931536 0.083925836 0.19604455
0.58001995 0.053227305 0.21912228
0.54669851 0.092780113 0.22117554
0.57723123 0.018197538 0.22533824
0.56598443 0.01963531 0.19869933
0.46586293 0.097913645 0.22301841
0.45503336 0.071089417 0.21549937
0.5160256 0.098181739 0.20953387
0.45587739 -0.019574001 0.21371911
0.55555224 0.077743664 0.212016
0.56619096 0.048436753 0.20517276
0.50292581 0.10526866 0.22126885
0.56286985 0.056287907 0.20376827
0.50427169 0.088387512 0.19656362
0.56901914 0.036107063 0.19894606
0.56570768 0.058336012 0.20951104
0.45301694 -0.019683972 0.22452383
0.56367511 0.071764953 0.22239152
0.57348758 0.073452719 0.21881871
0.51863855 0.09806627 0.22098465
0.50865811 -0.047693226 0.22631422
0.45352274 0.051072691 0.1989643
0.48597857 0.098820008 0.21688764
0.47524908 -0.029429652 0.20937645
0.58152372 -0.013860379 0.22731134
0.50360662 0.097153604 0.2048149
0.57700086 0.036087047 0.22352435
0.5804621 -2.7621463e-05 0.22507475
0.49989089 -0.036391631 0.19703323
0.57034886 0.058867823 0.22322614
0.49602035 0.088014804 0.20106037
0.55027604 0.086698316 0.2184512
0.51668209 0.090796061 0.20399889
0.57273346 0.071444564 0.22084685
0.49659008 0.09672109 0.21608025
0.48109084 0.079090104 0.19445139
0.47163811 0.077431522 0.20240502
0.45975694 -0.024365885 0.21649911
0.52340353 0.090854533 0.19590327
0.49339825 0.088659279 0.2050477
0.56420612 0.068956688 0.21518885
0.46990696 -0.028298922 0.21219601
0.57221854 0.0019439739 0.22554436
0.55206645 0.074044868 0.20024131
0.58467394 0.035858516 0.22489008
0.5172925 0.10078671 0.21484414
0.56955862 -0.015600977 0.22086374
0.4693912 -0.029639663 0.21457899
0.56295061 0.060822506 0.20580421
0.50898027 0.094391219 0.20024616
0.53139383 0.08141844 0.19457197
0.45717862 0.073661849 0.22149867
0.57634795 0.050129496 0.2267676
0.45191818 0.016784249 0.19262353
0.57682395 0.041951329 0.22504936
0.51853579 0.096817397 0.20716707
0.56667268 0.067820787 0.22109026
0.57135957 0.021703871 0.20717333
0.48561776 -0.039942332 0.21570456
0.5199464 0.095578358 0.21300305
0.53824151 -0.04186951 0.22113109
0.47666073 0.097934656 0.22070831
0.52706099 -0.046070918 0.22361879
0.51040572 0.094461545 0.19970955
0.53944945 -0.03944372 0.2190064
0.47367647 0.098649882 0.22234155
0.46838477 -0.027219981 0.21086162
0.45638776 0.053448178 0.19671425
0.54890537 0.085642107 0.21522565
0.53577632 0.079688638 0.19159849
0.58353096 -0.0019742849 0.22259486
0.56433922 -0.018067271 0.20817788
0.56717896 0.078917153 0.22151837
0.49574178 0.093775548 0.22219393
0.54597408 0.088869914 0.21332619
0.50849134 0.097875938 0.21674372
0.5497548 0.086245559 0.22154239
0.58100206 0.009498545 0.21844067
0.57502586 0.033793867 0.2194178
0.57966608 0.0046700924 0.22453855
0.50566798 0.089442275 0.18940018
0.56270587 -0.032958332 0.22638065
0.5680868 0.064333588 0.21792217
0.45918828 0.049235601 0.19222116
0.55721158 -0.026788464 0.2274214
0.47276154 0.087212875 0.21784633
0.48147035 0.10600899 0.22248012
0.48816624 0.10632244 0.22224498
0.52754962 0.095620744 0.20841588
0.48112324 -0.034311142 0.21135916
0.48793221 0.093779854 0.21545003
0.53779042 0.095624186 0.21662448
0.45287615 0.052728165 0.20026305
0.5609836 0.059814427 0.19133632
0.46490005 0.071632907 0.19922464
0.46315262 0.08453434 0.21777718
0.53846365 -0.031789586 0.19525477
0.49827918 0.091543101 0.19104494
0.5723868 0.055250388 0.22435842
0.51204592 0.097807847 0.20712124
0.57672828 0.039340463 0.22442512
0.55933046 0.0089001637 0.19261983
0.5707733 0.037027989 0.20192136
0.46518224 -0.025090775 0.21082744
0.58869112 0.016151553 0.22474648
0.53294289 0.093509309 0.21248531
0.57066548 0.02737085 0.20692128
0.53488135 0.09296868 0.21507224
0.4627226 -0.017205128 0.2028418
0.45390353 -0.023880281 0.2301562
0.52658623 0.10061087 0.21949179
0.54749852 -0.032171071 0.20563956
0.58776623 0.032911569 0.22423908
0.51784229 0.088299699 0.19103199
0.57022274 0.064022288 0.22290079
0.46069044 0.08809004 0.22222601
0.53428251 -0.033302832 0.19677837
0.58784759 0.014022823 0.22180808
0.50155258 0.085732117 0.19360343
0.46389449 -0.030947424 0.22704911
0.56777173 0.049121927 0.20788099
0.50236124 0.10029156 0.2201328
0.55746138 0.088667832 0.22035487
0.48510352 -0.039829835 0.2171248
0.53555596 0.080504432 0.19343601
0.45062301 0.033001028 0.19773026
0.47474712 0.077286378 0.19727205
0.57479936 0.046611492 0.22063226
0.46936703 0.076470688 0.20277731
0.48568872 0.097049236 0.22336587
0.53444403 -0.039604988 0.21234585
0.48028168 0.093337305 0.20030594
0.56636477 0.050840396 0.20703992
0.45107454 0.069887549 0.22534496
0.49457699 -0.038931109 0.20354429
0.49696705 0.096923172 0.21728897
0.5019905 0.10127364 0.21104923
0.53364116 0.081209198 0.19428191
0.56653011 0.014895091 0.19955564
0.4505972 -0.014795179 0.22301395
0.58115244 0.059982881 0.22151558
0.50208771 -0.044888951 0.21827523
0.4769026 0.08610297 0.21169047
0.49157628 0.10123197 0.21896538
0.54804212 0.09570045 0.22114347
0.54032499 0.094451919 0.22253555
0.56094003 0.044523291 0.19134244
0.55342007 0.0809853 0.21285915
0.52699041 0.084509291 0.1933334
0.53620237 0.094759285 0.2124259
0.4671542 0.093285792 0.22165029
0.59038639 0.02545293 0.22423001
0.46367046 -0.036231462 0.22613037
0.56517094 0.048363559 0.2032173
0.57149875 0.013245325 0.20371355
0.4903312 0.096671946 0.20274714
0.56040925 0.076541305 0.22280903
0.56120282 0.065958358 0.19872028
0.46574518 0.067931101 0.1941241
0.47252265 0.088758089 0.22137749
0.49672496 0.085620113 0.19681536
0.52668995 0.10137466 0.21991335
0.49477062 0.098970793 0.20818107
0.58067119 -0.00094215089 0.22442946
0.56989348 0.0016165682 0.21999283
0.54693431 0.069149688 0.19116564
0.56426668 0.013358596 0.19991416
0.5160498 0.097210042 0.21564008
0.58393675 -0.0048482739 0.22191754
0.45407671 -0.018343642 0.22386876
0.49586567 0.095763661 0.20098685
0.55443639 0.078458071 0.21043259
0.48757127 -0.034436703 0.20102994
0.46445066 0.086758807 0.2099666
0.4634912 -0.025117099 0.21284495
0.50464857 0.088017769 0.19617945
0.54569072 0.090815492 0.22053601
0.56530362 0.076306634 0.22071883
0.51645929 -0.051039822 0.22891368
0.57228899 0.020581933 0.20684439
0.45812151 -0.021411158 0.22380838
0.45508918 -0.017309256 0.21383217
0.4695814 0.082032144 0.2122976
0.54479909 0.087507635 0.2187645
0.4844602 0.090583734 0.19645585
0.58759183 0.049479995 0.22111401
0.58052933 0.008653475 0.2166554
0.48761091 0.091413811 0.21414414
0.52200413 0.10418134 0.22110985
0.58589739 -0.00081988575 0.22444312
0.53045189 0.083670095 0.19634081
0.54884005 -0.03393792 0.22712739
0.54390687 0.093304537 0.22361197
0.5337978 -0.03848337 0.20678546
0.52618092 0.092967667 0.20878384
0.50602233 0.10398572 0.22063075
0.55968004 0.055399459 0.19327694
0.52719086 -0.048414364 0.22638825
0.55458903 0.06530378 0.19379118
0.56137675 0.068718739 0.2015731
0.53039169 0.08920034 0.19843455
0.49553698 0.086330004 0.19774874
0.5628311 0.0018273322 0.19740278
0.58227205 0.013179818 0.21927975
0.54946321 0.086487971 0.22156474
0.47385231 -0.022448283 0.19388984
0.50932723 0.097936578 0.21642819
0.56549174 0.072069354 0.22359152
0.47371677 0.072527699 0.19356301
0.55632687 0.062590696 0.19407587
0.45217144 0.066234194 0.19228862
0.4686861 -0.03586759 0.22423716
0.56694859 0.031382281 0.1970553
0.5368982 0.1021511 0.21960831
0.58138698 -0.00058032246 0.22434807
0.46770164 -0.029647958 0.21658392
0.56168139 0.049833186 0.19565904
0.51700205 -0.050308548 0.22437485
0.56528372 0.037818238 0.19414175
0.55980843 0.064365737 0.19584893
0.57495266 -0.0054275994 0.21435992
0.4664247 0.077476844 0.21085364
0.57160902 0.064109147 0.22453722
0.50633818 -0.041953392 0.20686328
0.57525831 0.063077047 0.21966307
0.45449027 0.048866134 0.19596757
0.54674298 0.094870776 0.22118585
0.54368913 0.090719797 0.21617225
0.54584783 0.092056945 0.22373338
0.54594779 0.091607675 0.2234555
0.45100054 0.013312488 0.19658987
0.56885803 0.038574778 0.19932683
0.46217939 0.067436203 0.19781525
0.58527696 0.02796567 0.22142941
0.56441724 0.025395721 0.19669355
0.5613727 0.065829821 0.20594463
0.58604151 0.013258729 0.22210415
0.58417624 0.027561702 0.22164743
0.45607463 0.060556024 0.20117627
0.49201235 0.098738231 0.2065285
0.54284626 -0.027228786 0.19290097
0.45901164 -0.0136547 0.20463277
0.50071436 0.098507635 0.20696896
0.4952507 0.093974076 0.1966283
0.55418247 -0.029422875 0.21368822
0.56006402 0.0055224625 0.19458252
0.49790961 0.097205378 0.21581887
0.55320108 -0.033413671 0.21929939
0.57095987 0.04047706 0.20998223
0.57330793 0.0436785 0.21495932
0.52270496 0.095558032 0.21307206
0.53730923 -0.04205386 0.22037967
0.4659223 -0.020427346 0.20360078
0.47833171 0.082931824 0.20417786
0.51569057 0.10062985 0.21787485
0.57870758 0.030377286 0.22293469
0.56313682 0.069478564 0.21499984
0.52707922 -0.052794863 0.22933614
0.51495963 0.098279573 0.21675131
0.50886935 -0.047362234 0.21954781
0.573865 0.0046718828 0.19667631
0.57379484 0.064724453 0.22319114
0.46882197 0.086158969 0.22384366
0.55609906 0.07652916 0.21100903
0.51768112 0.099193186 0.212523
0.52379435 -0.044899538 0.21787693
0.54365045 0.0908162 0.22013794
0.55985695 0.059074108 0.19879141
0.58794826 0.0062091765 0.22198389
0.55610001 0.073486947 0.20421369
0.48686379 0.09362486 0.22101107
0.53572118 0.082880162 0.19663183
0.48223358 0.096860647 0.20260021
0.56657898 0.062577382 0.21175505
0.52487999 0.093424268 0.21085508
0.53941733 0.081696205 0.19774258
0.53330564 -0.03376396 0.19622934
0.49458003 -0.047742657 0.22593649
0.54659367 -0.031977568 0.2046262
0.4745822 0.076071776 0.19660166
0.5074634 0.10662524 0.22606005
0.4812873 0.081868015 0.19979446
0.45134929 0.076179765 0.21272518
0.49862227 -0.042768598 0.21071672
0.56439072 0.036964532 0.19438612
0.54108131 -0.028549647 0.19325954
0.56923258 0.064003915 0.22100176
0.56833589 0.0079314578 0.22110914
0.48012167 -0.037674669 0.21528988
0.46444774 0.068120688 0.19603124
0.57106864 0.072845064 0.21991293
0.56866282 0.068927661 0.2256833
0.57176924 0.052054629 0.21625307
0.58365732 0.053742107 0.22039126
0.50824314 0.0953793 0.21408293
0.57113123 0.059448604 0.20052467
0.47666639 0.075152665 0.19391836
0.56833315 0.050832901 0.20944509
0.49618748 0.084145941 0.19489938
0.58798999 0.028129097 0.22287409
0.53630722 0.097968504 0.21755822
0.51592618 0.099735029 0.21849708
0.52515471 -0.034646407 0.19394483
0.56182432 -0.011371942 0.22367513
0.58012766 0.03506019 0.22715305
0.57272339 0.064335652 0.21527591
0.49145254 -0.033415899 0.19741338
0.57805318 0.0071751415 0.22712213
0.5508337 -0.032737587 0.2147731
0.5866397 0.029713929 0.22429213
0.53926897 0.084308296 0.20094442
0.58615893 0.02932612 0.22188628
0.50129461 -0.044716403 0.21850161
0.47075525 0.081330702 0.21137534
0.49089175 0.099894956 0.21084198
0.48180559 0.0829456 0.20147693
0.51480043 -0.049624756 0.22104613
0.49186662 -0.049989339 0.22731531
0.50331503 0.097396016 0.20483725
0.46419165 0.089196496 0.21298034
0.48106843 0.080256194 0.19890484
0.46212456 0.067032292 0.19759233
0.49095881 0.093513861 0.19804582
0.51833189 0.10510907 0.22265354
0.51904941 0.094196565 0.21129495
0.56695282 0.049259398 0.20618892
0.50696641 0.099461131 0.21959691
0.51695067 0.085075364 0.19417794
0.50839984 0.096995324 0.20591782
0.55364841 0.080005825 0.21496664
0.47662684 0.10297211 0.22305381
0.54305077 0.095596589 0.22619766
0.53369755 0.085172959 0.19859117
0.54148459 -0.037603144 0.21436615
0.58594638 0.0082954597 0.22348297
0.5662778 -0.0076871915 0.19792584
0.492872 -0.040784154 0.20932484
0.49373418 -0.030940566 0.19352093
0.54669791 -0.03743659 0.22093394
0.52839154 -0.046642613 0.22469968
0.50064784 -0.047586914 0.22577515
0.45115873 -0.019818781 0.22522524
0.56105995 0.068318583 0.20761333
0.56970257 -0.0029966761 0.19844523
0.58098799 -0.0097149285 0.2260709
0.55533493 -0.001478999 0.19499956
0.45163706 -0.020261183 0.22745983
0.57462013 0.071798235 0.22275586
0.49513617 0.095325977 0.2214276
0.45327461 -0.010457109 0.20880139
0.53403652 0.081636108 0.19480924
0.54837132 0.087252602 0.22174346
0.52391589 0.094711959 0.20444039
0.55648327 0.07640709 0.20977141
0.58820099 0.035936851 0.22332348
0.4811365 0.085798487 0.2084752
0.56478107 0.036274858 0.19408678
0.58669752 0.023907278 0.22428979
0.48452017 0.093108483 0.22108559
0.5149551 0.084077887 0.19192262
0.49266064 0.089999273 0.20741954
0.56649131 0.044137131 0.19945331
0.46671996 -0.021322619 0.2038509
0.5563488 -0.020939525 0.19949858
0.49301946 0.092408679 0.19562893
0.56876421 0.04735209 0.19166465
0.55958617 0.067121059 0.19886574
0.58301115 -0.011674771 0.22649947
0.52689332 0.099876873 0.21891518
0.51069504 -0.052035403 0.22822672
0.48272538 -0.041343167 0.22813393
0.46243283 0.06573949 0.20155747
0.48081976 -0.028920831 0.19900402
0.48443303 0.094087392 0.2003807
0.48190594 -0.032603614 0.20607105
0.50388545 -0.042844854 0.20850684
0.47418875 0.088286504 0.21665405
0.56746221 0.075402737 0.21925803
0.54491478 -0.030211663 0.19908273
0.57478291 -0.020154098 0.22800358
0.57073009 -0.017933525 0.22445253
0.54563087 0.089732602 0.2124247
0.54227835 0.095873736 0.22598746
0.50746012 0.09477108 0.20106412
0.53793406 0.090859503 0.21498926
0.46373722 -0.015105785 0.19846854
0.45338124 -0.0075581749 0.20556258
0.55952084 -0.024246678 0.2117904
0.52292031 0.098536856 0.2121439
0.56861335 0.06439247 0.2196022
0.49808836 0.096824691 0.2204414
0.55209422 0.07461182 0.20202851
0.48291546 0.08028426 0.19565406
0.53477764 0.091658361 0.20801869
0.58016485 0.0078264773 0.21735944
0.46482277 -0.023222001 0.20974466
0.53776133 0.09359663 0.2179741
0.48024565 -0.030666677 0.20168024
0.49343339 0.087204129 0.20041277
0.5686757 0.056037072 0.21076189
0.54291373 0.09031906 0.21004483
0.4646202 -0.028669659 0.22362894
0.46242881 0.078915752 0.19903155
0.57007331 0.041228998 0.20464577
0.47406834 0.079842895 0.2040938
0.58733636 0.0075575653 0.22181875
0.45243853 -0.016206283 0.22315264
0.58444238 0.033512227 0.22018197
0.5392704 0.091835953 0.21191579
0.55466193 0.08399497 0.21744412
0.4509646 0.011902547 0.1975387
0.45663163 -0.0069118901 0.19842198
0.46458498 -0.027525166 0.21524328
0.45810354 -0.02974318 0.22482862
0.57755834 0.049827803 0.22719485
0.57873982 0.040452871 0.22632605
0.4904429 -0.040255662 0.21001819
0.54141897 -0.046312142 0.22780301
0.55504495 -0.029479489 0.22833373
0.54411393 0.095077731 0.22638558
0.57230788 0.00034360617 0.22576509
0.51950479 0.097863689 0.2084595
0.55066931 0.069696218 0.19492817
0.55944169 -0.038197707 0.22870336
0.52053714 0.093711086 0.19918004
0.54773772 -0.030686563 0.22893496
0.45836329 -0.021100413 0.21111429
0.45286775 0.0017296561 0.20029514
0.49384704 0.10131053 0.21888873
0.54433638 -0.037898351 0.22720195
0.553267 -0.026310649 0.22836384
0.58535409 0.034048796 0.22136897
0.54155201 0.07500758 0.18989111
0.5572874 -0.020802166 0.22781831
0.49700013 0.098365203 0.20757733
0.45224446 -0.0021206804 0.20499879
0.4920857 -0.030581916 0.19399148
0.56498349 -0.0073462143 0.19570823
0.50937754 -0.04980335 0.22596997
0.46202216 0.065010071 0.20094284
0.58156872 0.060353305 0.22156572
0.57114577 -0.01244997 0.21936992
0.52194899 0.098412618 0.21288456
0.55866772 0.057124097 0.19265234
0.49774167 0.088139683 0.20041063
0.58341283 0.025172254 0.22358918
0.56547081 0.083188921 0.22235183
0.49630806 0.093606591 0.21181275
0.53275454 0.080939204 0.19225276
0.56279063 0.069080763 0.21181272
0.56239444 0.010138385 0.19924016
0.50697178 0.099115565 0.20806959
0.47990149 0.10606004 0.22302927
0.53190809 -0.034838773 0.19626725
0.47043625 -0.026591975 0.20956483
0.46689662 -0.035493102 0.22589467
0.57517779 0.045112453 0.22243688
0.4549275 -0.019913672 0.22482286
0.48554218 0.08627528 0.19114953
0.5301646 0.089988381 0.20653372
0.47001493 -0.038633328 0.22663434
0.51650125 0.098929174 0.22005741
0.52607226 0.09312883 0.21017238
0.45819482 -0.0038492561 0.19467063
0.58478439 0.025760546 0.22388452
0.57841814 0.026458733 0.22394902
0.55085939 -0.03148976 0.21011442
0.48950547 0.093868934 0.1988814
0.48548952 -0.04646273 0.22899324
0.50554663 -0.05068415 0.22699559
0.55108076 0.07298059 0.19892669
0.52971655 0.096244954 0.21998045
0.58596063 0.045134958 0.22074404
0.57830566 0.0091833025 0.22738583
0.5046227 0.10044256 0.22118303
0.57230312 0.069550723 0.21863008
0.47918612 -0.039573617 0.22331809
0.57429445 -0.013248745 0.22459948
0.50558168 -0.049307086 0.22606888
0.49370018 0.096188717 0.20284553
0.4707664 -0.021569081 0.19718081
0.48792419 0.098168023 0.20391272
0.55594093 -0.017463088 0.19609845
0.53448606 0.086024381 0.19964287
0.5698117 0.0010308055 0.21951663
0.55191195 0.080027416 0.20863487
0.57456934 0.038699821 0.21873163
0.51981032 -0.037758958 0.19830064
0.57806057 0.026072593 0.22347206
0.5508256 0.089536399 0.21870385
0.56657261 -0.01365349 0.20811829
0.55308229 0.078492939 0.20677699
0.51518583 0.10336924 0.21968046
0.57109803 0.052972469 0.21657003
0.51177233 0.098299704 0.22250508
0.57302928 -0.017057035 0.22543253
0.56400663 0.044152491 0.19677681
0.54469454 0.083832413 0.21656971
0.47235298 -0.034220241 0.21888712
0.55403543 0.082592629 0.2143649
0.49576342 -0.048000127 0.22559869
0.55509877 -0.027611615 0.21336946
0.57313091 0.056053847 0.22535089
0.48129463 -0.031819295 0.20836206
0.57516593 0.066564418 0.2226581
0.4653087 0.067899436 0.19428886
0.57024109 0.039083645 0.20179881
0.50712419 0.10155082 0.21265627
0.57868248 0.027264187 0.22468534
0.46609479 -0.034066297 0.22592883
0.55774915 -0.023941986 0.20470643
0.58372051 0.021212298 0.22170527
0.57979101 0.054228537 0.21982875
0.58424926 0.033676751 0.22524297
0.50506192 -0.045194395 0.22780763
0.55128729 -0.034788761 0.21721004
0.45172793 0.062389996 0.21034905
0.49064463 -0.051122867 0.22859053
0.53688794 0.090084188 0.20663621
0.4522852 0.075996973 0.21038511
0.54954028 -0.033822205 0.21477276
0.55204451 -0.034805685 0.22071764
0.55488324 -0.028752845 0.22878315
0.57251734 0.0071866638 0.22415838
0.45451307 0.071392201 0.22159828
0.52036852 0.085323326 0.19288783
0.55097914 0.090353653 0.22523142
0.57445318 0.063232549 0.22729698
0.58223498 0.056102239 0.21993966
0.56073213 0.082272939 0.22130287
0.54789448 -0.032562096 0.20954995
0.53399169 0.10028169 0.21865779
0.56199443 0.083079092 0.2212617
0.55072242 0.087095566 0.21850498
0.5639416 -0.015375408 0.20529275
0.47928905 -0.038562346 0.21623513
0.49090528 -0.038132273 0.20459232
0.4649339 0.094461076 0.22132552
0.56171012 -0.014201816 0.20037875
0.46119726 -0.021716986 0.21030536
0.54935485 0.088042639 0.22265388
0.49326143 0.08408872 0.19485377
0.54321986 0.090444572 0.21977869
0.47180566 0.097284675 0.22168343
0.52778721 0.090987988 0.19835541
0.54091316 0.083891362 0.2007764
0.45658833 -0.00035323968 0.19432004
0.54225475 -0.043169964 0.22536388
0.48164245 -0.041180208 0.22205292
0.55949336 -0.027678909 0.21916983
0.52389342 0.0919585 0.196981
0.48697674 -0.030624002 0.19748732
0.51292568 0.097076401 0.2070538
0.5688166 0.046492897 0.19236366
0.49176064 0.10143103 0.21921127
0.53599942 -0.041816328 0.21951108
0.52287781 0.10158451 0.21915951
0.57570893 0.0055525629 0.19530138
0.53274226 -0.04031916 0.20972794
0.45066485 0.045543563 0.19959979
0.57551086 -0.017531907 0.22272186
0.4934223 0.094937034 0.21632913
0.51292217 0.093999416 0.19936579
0.49516493 0.096454658 0.22066805
0.56306833 0.057813197 0.19172724
0.46213281 0.083282009 0.2219193
0.58937192 0.025074353 0.22364247
